x,y,z,intensity
1.759999990463256836e-01,5.044000148773193359e+00,2.599999904632568359e+00,1.065353216000000000e+09
-2.199999988079071045e-02,4.952000141143798828e+00,2.480999946594238281e+00,1.065353216000000000e+09
-2.129999995231628418e-01,4.828999996185302734e+00,2.364000082015991211e+00,1.065353216000000000e+09
-4.079999923706054688e-01,4.710000038146972656e+00,2.250000000000000000e+00,1.065353216000000000e+09
6.199999898672103882e-02,4.901999950408935547e+00,2.523999929428100586e+00,1.065353216000000000e+09
-1.309999972581863403e-01,4.806000232696533203e+00,2.410000085830688477e+00,1.065353216000000000e+09
-3.170000016689300537e-01,4.686999797821044922e+00,2.302999973297119141e+00,1.065353216000000000e+09
-5.059999823570251465e-01,4.570000171661376953e+00,2.196000099182128906e+00,1.065353216000000000e+09
-4.399999976158142090e-02,4.789000034332275391e+00,2.463999986648559570e+00,1.065353216000000000e+09
-2.329999953508377075e-01,4.670000076293945312e+00,2.345999956130981445e+00,1.065353216000000000e+09
-4.149999916553497314e-01,4.554999828338623047e+00,2.246999979019165039e+00,1.065353216000000000e+09
-5.970000028610229492e-01,4.416999816894531250e+00,2.137000083923339844e+00,1.065353216000000000e+09
-1.459999978542327881e-01,4.664000034332275391e+00,2.398999929428100586e+00,1.065353216000000000e+09
-3.319999873638153076e-01,4.550000190734863281e+00,2.290999889373779297e+00,1.065353216000000000e+09
-5.080000162124633789e-01,4.425000190734863281e+00,2.193000078201293945e+00,1.065353216000000000e+09
-6.819999814033508301e-01,4.276000022888183594e+00,2.084000110626220703e+00,1.065353216000000000e+09
-2.450000047683715820e-01,4.559999942779541016e+00,2.345000028610229492e+00,1.065353216000000000e+09
-4.239999949932098389e-01,4.433000087738037109e+00,2.237999916076660156e+00,1.065353216000000000e+09
-5.960000157356262207e-01,4.307000160217285156e+00,2.145999908447265625e+00,1.065353216000000000e+09
-7.649999856948852539e-01,4.151999950408935547e+00,2.039999961853027344e+00,1.065353216000000000e+09
-3.379999995231628418e-01,4.447000026702880859e+00,2.289000034332275391e+00,1.065353216000000000e+09
-5.120000243186950684e-01,4.309000015258789062e+00,2.181999921798706055e+00,1.065353216000000000e+09
-6.769999861717224121e-01,4.179999828338623047e+00,2.094000101089477539e+00,1.065353216000000000e+09
-8.399999737739562988e-01,4.019000053405761719e+00,1.993000030517578125e+00,1.065353216000000000e+09
-4.269999861717224121e-01,4.344999790191650391e+00,2.239000082015991211e+00,1.065353216000000000e+09
-5.960000157356262207e-01,4.198999881744384766e+00,2.134000062942504883e+00,1.065353216000000000e+09
-7.559999823570251465e-01,4.059000015258789062e+00,2.046999931335449219e+00,1.065353216000000000e+09
-9.139999747276306152e-01,3.904000043869018555e+00,1.952999949455261230e+00,1.065353216000000000e+09
-5.120000243186950684e-01,4.230000019073486328e+00,2.183000087738037109e+00,1.065353216000000000e+09
-6.759999990463256836e-01,4.092999935150146484e+00,2.088999986648559570e+00,1.065353216000000000e+09
-8.280000090599060059e-01,3.936000108718872070e+00,1.998999953269958496e+00,1.065353216000000000e+09
-9.810000061988830566e-01,3.783999919891357422e+00,1.911999940872192383e+00,1.065353216000000000e+09
-5.960000157356262207e-01,4.147999763488769531e+00,2.145999908447265625e+00,1.065353216000000000e+09
-7.509999871253967285e-01,3.979000091552734375e+00,2.040999889373779297e+00,1.065353216000000000e+09
-9.010000228881835938e-01,3.839999914169311523e+00,1.963999986648559570e+00,1.065353216000000000e+09
-1.047999978065490723e+00,3.676000118255615234e+00,1.876999974250793457e+00,1.065353216000000000e+09
-6.710000038146972656e-01,4.030000209808349609e+00,2.089999914169311523e+00,1.065353216000000000e+09
-8.270000219345092773e-01,3.892999887466430664e+00,2.006999969482421875e+00,1.065353216000000000e+09
-9.660000205039978027e-01,3.726000070571899414e+00,1.922000050544738770e+00,1.065353216000000000e+09
-1.105000019073486328e+00,3.553999900817871094e+00,1.835000038146972656e+00,1.065353216000000000e+09
-7.440000176429748535e-01,3.921999931335449219e+00,2.039999961853027344e+00,1.065353216000000000e+09
-8.939999938011169434e-01,3.783999919891357422e+00,1.962000012397766113e+00,1.065353216000000000e+09
-1.027999997138977051e+00,3.617000102996826172e+00,1.881999969482421875e+00,1.065353216000000000e+09
-1.088999986648559570e+00,3.232000112533569336e+00,1.687999963760375977e+00,1.065353216000000000e+09
-8.169999718666076660e-01,3.838000059127807617e+00,2.003999948501586914e+00,1.065353216000000000e+09
-9.589999914169311523e-01,3.678999900817871094e+00,1.921000003814697266e+00,1.065353216000000000e+09
-1.083999991416931152e+00,3.503999948501586914e+00,1.840000033378601074e+00,1.065353216000000000e+09
-1.148000001907348633e+00,3.157000064849853516e+00,1.669999957084655762e+00,1.065353216000000000e+09
-8.859999775886535645e-01,3.746000051498413086e+00,1.963999986648559570e+00,1.065353216000000000e+09
-1.023000001907348633e+00,3.588999986648559570e+00,1.886999964714050293e+00,1.065353216000000000e+09
-1.098999977111816406e+00,3.280999898910522461e+00,1.740000009536743164e+00,1.065353216000000000e+09
-1.238000035285949707e+00,3.165999889373779297e+00,1.697000026702880859e+00,1.065353216000000000e+09
-9.530000090599060059e-01,3.660000085830688477e+00,1.927999973297119141e+00,1.065353216000000000e+09
-1.072999954223632812e+00,3.459000110626220703e+00,1.832999944686889648e+00,1.065353216000000000e+09
-1.141000032424926758e+00,3.158999919891357422e+00,1.692999958992004395e+00,1.065353216000000000e+09
-1.299999952316284180e+00,3.107000112533569336e+00,1.687999963760375977e+00,1.065353216000000000e+09
-1.013000011444091797e+00,3.562999963760375977e+00,1.886999964714050293e+00,1.065353216000000000e+09
-1.100000023841857910e+00,3.280999898910522461e+00,1.753000020980834961e+00,1.065353216000000000e+09
-1.218999981880187988e+00,3.145999908447265625e+00,1.705000042915344238e+00,1.065353216000000000e+09
-1.360999941825866699e+00,3.049999952316284180e+00,1.680999994277954102e+00,1.065353216000000000e+09
-1.062000036239624023e+00,3.437000036239624023e+00,1.830999970436096191e+00,1.065353216000000000e+09
-1.138000011444091797e+00,3.155999898910522461e+00,1.700999975204467773e+00,1.065353216000000000e+09
-1.286000013351440430e+00,3.101999998092651367e+00,1.700999975204467773e+00,1.065353216000000000e+09
-1.407999992370605469e+00,2.966000080108642578e+00,1.659000039100646973e+00,1.065353216000000000e+09
-1.095999956130981445e+00,3.283999919891357422e+00,1.761000037193298340e+00,1.065353216000000000e+09
-1.213000059127807617e+00,3.135999917984008789e+00,1.705999970436096191e+00,1.065353216000000000e+09
-1.338999986648559570e+00,3.032000064849853516e+00,1.682999968528747559e+00,1.065353216000000000e+09
-1.452999949455261230e+00,2.881999969482421875e+00,1.638000011444091797e+00,1.065353216000000000e+09
-1.133000016212463379e+00,3.157000064849853516e+00,1.705000042915344238e+00,1.065353216000000000e+09
-1.279999971389770508e+00,3.096999883651733398e+00,1.700999975204467773e+00,1.065353216000000000e+09
-1.391999959945678711e+00,2.964999914169311523e+00,1.667000055313110352e+00,1.065353216000000000e+09
-1.491999983787536621e+00,2.795000076293945312e+00,1.613999962806701660e+00,1.065353216000000000e+09
-1.208999991416931152e+00,3.141000032424926758e+00,1.708999991416931152e+00,1.065353216000000000e+09
-1.338000059127807617e+00,3.039000034332275391e+00,1.687000036239624023e+00,1.065353216000000000e+09
-1.435999989509582520e+00,2.881999969482421875e+00,1.643000006675720215e+00,1.065353216000000000e+09
-1.527999997138977051e+00,2.707000017166137695e+00,1.590000033378601074e+00,1.065353216000000000e+09
-1.273000001907348633e+00,3.096999883651733398e+00,1.699000000953674316e+00,1.065353216000000000e+09
-1.389999985694885254e+00,2.971999883651733398e+00,1.669000029563903809e+00,1.065353216000000000e+09
-1.475000023841857910e+00,2.796999931335449219e+00,1.618000030517578125e+00,1.065353216000000000e+09
-1.562000036239624023e+00,2.621000051498413086e+00,1.567000031471252441e+00,1.065353216000000000e+09
-1.335000038146972656e+00,3.051000118255615234e+00,1.689000010490417480e+00,1.065353216000000000e+09
-1.432999968528747559e+00,2.888000011444091797e+00,1.641000032424926758e+00,1.065353216000000000e+09
-1.513000011444091797e+00,2.716000080108642578e+00,1.593999981880187988e+00,1.065353216000000000e+09
-1.595999956130981445e+00,2.542000055313110352e+00,1.547999978065490723e+00,1.065353216000000000e+09
-1.381999969482421875e+00,2.973999977111816406e+00,1.661000013351440430e+00,1.065353216000000000e+09
-1.475999951362609863e+00,2.812999963760375977e+00,1.618999958038330078e+00,1.065353216000000000e+09
-1.552999973297119141e+00,2.641000032424926758e+00,1.575000047683715820e+00,1.065353216000000000e+09
-1.626000046730041504e+00,2.459000110626220703e+00,1.526999950408935547e+00,1.065353216000000000e+09
-1.432000041007995605e+00,2.904999971389770508e+00,1.639999985694885254e+00,1.065353216000000000e+09
-1.516000032424926758e+00,2.736000061035156250e+00,1.595000028610229492e+00,1.065353216000000000e+09
-1.585000038146972656e+00,2.559000015258789062e+00,1.550999999046325684e+00,1.065353216000000000e+09
-1.659999966621398926e+00,2.388000011444091797e+00,1.513000011444091797e+00,1.065353216000000000e+09
-1.475999951362609863e+00,2.831000089645385742e+00,1.615000009536743164e+00,1.065353216000000000e+09
-1.552000045776367188e+00,2.654999971389770508e+00,1.570000052452087402e+00,1.065353216000000000e+09
-1.618999958038330078e+00,2.486000061035156250e+00,1.531999945640563965e+00,1.065353216000000000e+09
-1.684999942779541016e+00,2.308000087738037109e+00,1.491999983787536621e+00,1.065353216000000000e+09
-1.516000032424926758e+00,2.753999948501586914e+00,1.588999986648559570e+00,1.065353216000000000e+09
-1.590999960899353027e+00,2.584000110626220703e+00,1.549999952316284180e+00,1.065353216000000000e+09
-1.657999992370605469e+00,2.420000076293945312e+00,1.519000053405761719e+00,1.065353216000000000e+09
-1.715000033378601074e+00,2.237999916076660156e+00,1.478999972343444824e+00,1.065353216000000000e+09
-1.555999994277954102e+00,2.680000066757202148e+00,1.565999984741210938e+00,1.065353216000000000e+09
-1.626000046730041504e+00,2.510999917984008789e+00,1.529999971389770508e+00,1.065353216000000000e+09
-1.684000015258789062e+00,2.342000007629394531e+00,1.498000025749206543e+00,1.065353216000000000e+09
-1.738999962806701660e+00,2.163000106811523438e+00,1.460999965667724609e+00,1.065353216000000000e+09
-1.593000054359436035e+00,2.605000019073486328e+00,1.541000008583068848e+00,1.065353216000000000e+09
-1.661000013351440430e+00,2.438999891281127930e+00,1.511000037193298340e+00,1.065353216000000000e+09
-1.715999960899353027e+00,2.273000001907348633e+00,1.483000040054321289e+00,1.065353216000000000e+09
-1.764000058174133301e+00,2.092999935150146484e+00,1.447000026702880859e+00,1.065353216000000000e+09
-1.631999969482421875e+00,2.536999940872192383e+00,1.521999955177307129e+00,1.065353216000000000e+09
-1.695999979972839355e+00,2.372999906539916992e+00,1.495000004768371582e+00,1.065353216000000000e+09
-1.740000009536743164e+00,2.197999954223632812e+00,1.463000059127807617e+00,1.065353216000000000e+09
-1.781999945640563965e+00,2.016999959945678711e+00,1.429000020027160645e+00,1.065353216000000000e+09
-1.671000003814697266e+00,2.471999883651733398e+00,1.504999995231628418e+00,1.065353216000000000e+09
-1.728000044822692871e+00,2.302999973297119141e+00,1.476999998092651367e+00,1.065353216000000000e+09
-1.761000037193298340e+00,2.122999906539916992e+00,1.442999958992004395e+00,1.065353216000000000e+09
-1.810999989509582520e+00,1.957000017166137695e+00,1.421000003814697266e+00,1.065353216000000000e+09
-1.702999949455261230e+00,2.400000095367431641e+00,1.483000040054321289e+00,1.065353216000000000e+09
-1.750000000000000000e+00,2.226000070571899414e+00,1.453999996185302734e+00,1.065353216000000000e+09
-1.786000013351440430e+00,2.055999994277954102e+00,1.427999973297119141e+00,1.065353216000000000e+09
-1.832999944686889648e+00,1.891000032424926758e+00,1.409999966621398926e+00,1.065353216000000000e+09
-1.735000014305114746e+00,2.328999996185302734e+00,1.463000059127807617e+00,1.065353216000000000e+09
-1.782999992370605469e+00,2.163000106811523438e+00,1.440999984741210938e+00,1.065353216000000000e+09
-1.810999989509582520e+00,1.988999962806701660e+00,1.414000034332275391e+00,1.065353216000000000e+09
-1.840999960899353027e+00,1.814000010490417480e+00,1.389000058174133301e+00,1.065353216000000000e+09
-1.766999959945678711e+00,2.262000083923339844e+00,1.445000052452087402e+00,1.065353216000000000e+09
-1.804000020027160645e+00,2.088999986648559570e+00,1.419999957084655762e+00,1.065353216000000000e+09
-1.835999965667724609e+00,1.927000045776367188e+00,1.402999997138977051e+00,1.065353216000000000e+09
-1.866999983787536621e+00,1.756999969482421875e+00,1.383999943733215332e+00,1.065353216000000000e+09
-1.794000029563903809e+00,2.190999984741210938e+00,1.424999952316284180e+00,1.065353216000000000e+09
-1.822999954223632812e+00,2.016000032424926758e+00,1.399999976158142090e+00,1.065353216000000000e+09
-1.855999946594238281e+00,1.860999941825866699e+00,1.388000011444091797e+00,1.065353216000000000e+09
-1.884999990463256836e+00,1.695000052452087402e+00,1.373000025749206543e+00,1.065353216000000000e+09
-1.822000026702880859e+00,2.124000072479248047e+00,1.406999945640563965e+00,1.065353216000000000e+09
-1.856999993324279785e+00,1.962000012397766113e+00,1.393000006675720215e+00,1.065353216000000000e+09
-1.873999953269958496e+00,1.794999957084655762e+00,1.373999953269958496e+00,1.065353216000000000e+09
-1.901000022888183594e+00,1.631999969482421875e+00,1.363000035285949707e+00,1.065353216000000000e+09
-1.850000023841857910e+00,2.059000015258789062e+00,1.391000032424926758e+00,1.065353216000000000e+09
-1.876999974250793457e+00,1.894000053405761719e+00,1.376999974250793457e+00,1.065353216000000000e+09
-1.894999980926513672e+00,1.733999967575073242e+00,1.363999962806701660e+00,1.065353216000000000e+09
-1.917999982833862305e+00,1.570999979972839355e+00,1.353999972343444824e+00,1.065353216000000000e+09
-1.876999974250793457e+00,1.995000004768371582e+00,1.376000046730041504e+00,1.065353216000000000e+09
-1.889000058174133301e+00,1.820000052452087402e+00,1.355999946594238281e+00,1.065353216000000000e+09
-1.914000034332275391e+00,1.672000050544738770e+00,1.353000044822692871e+00,1.065353216000000000e+09
-1.937000036239624023e+00,1.514000058174133301e+00,1.348000049591064453e+00,1.065353216000000000e+09
-1.901999950408935547e+00,1.930999994277954102e+00,1.360999941825866699e+00,1.065353216000000000e+09
-1.917999982833862305e+00,1.764999985694885254e+00,1.348999977111816406e+00,1.065353216000000000e+09
-1.940000057220458984e+00,1.618999958038330078e+00,1.348000049591064453e+00,1.065353216000000000e+09
-1.944000005722045898e+00,1.450000047683715820e+00,1.335999965667724609e+00,1.065353216000000000e+09
-1.924999952316284180e+00,1.865000009536743164e+00,1.345999956130981445e+00,1.065353216000000000e+09
-1.937000036239624023e+00,1.702999949455261230e+00,1.335999965667724609e+00,1.065353216000000000e+09
-1.945999979972839355e+00,1.549999952316284180e+00,1.330999970436096191e+00,1.065353216000000000e+09
-1.960999965667724609e+00,1.394000053405761719e+00,1.330000042915344238e+00,1.065353216000000000e+09
-1.945999979972839355e+00,1.800999999046325684e+00,1.330000042915344238e+00,1.065353216000000000e+09
-1.963999986648559570e+00,1.648000001907348633e+00,1.330000042915344238e+00,1.065353216000000000e+09
-1.968000054359436035e+00,1.496000051498413086e+00,1.325999975204467773e+00,1.065353216000000000e+09
-1.973999977111816406e+00,1.337000012397766113e+00,1.322999954223632812e+00,1.065353216000000000e+09
-1.967000007629394531e+00,1.738000035285949707e+00,1.317000031471252441e+00,1.065353216000000000e+09
-1.978999972343444824e+00,1.585000038146972656e+00,1.317000031471252441e+00,1.065353216000000000e+09
-1.981999993324279785e+00,1.435999989509582520e+00,1.315999984741210938e+00,1.065353216000000000e+09
-1.981999993324279785e+00,1.277999997138977051e+00,1.314000010490417480e+00,1.065353216000000000e+09
-1.993999958038330078e+00,1.680999994277954102e+00,1.307999968528747559e+00,1.065353216000000000e+09
-1.998000025749206543e+00,1.526000022888183594e+00,1.307000041007995605e+00,1.065353216000000000e+09
-1.995000004768371582e+00,1.376999974250793457e+00,1.307000041007995605e+00,1.065353216000000000e+09
-1.996999979019165039e+00,1.225000023841857910e+00,1.309999942779541016e+00,1.065353216000000000e+09
-2.010999917984008789e+00,1.618000030517578125e+00,1.294000029563903809e+00,1.065353216000000000e+09
-2.013000011444091797e+00,1.465000033378601074e+00,1.296000003814697266e+00,1.065353216000000000e+09
-2.012000083923339844e+00,1.322000026702880859e+00,1.300999999046325684e+00,1.065353216000000000e+09
-2.007999897003173828e+00,1.169999957084655762e+00,1.304999947547912598e+00,1.065353216000000000e+09
-2.029999971389770508e+00,1.557000041007995605e+00,1.281999945640563965e+00,1.065353216000000000e+09
-2.029999971389770508e+00,1.407999992370605469e+00,1.286999940872192383e+00,1.065353216000000000e+09
-2.020999908447265625e+00,1.264000058174133301e+00,1.291000008583068848e+00,1.065353216000000000e+09
-2.016000032424926758e+00,1.115000009536743164e+00,1.297999978065490723e+00,1.065353216000000000e+09
-2.048000097274780273e+00,1.496000051498413086e+00,1.271000027656555176e+00,1.065353216000000000e+09
-2.049000024795532227e+00,1.353000044822692871e+00,1.281000018119812012e+00,1.065353216000000000e+09
-2.038000106811523438e+00,1.210000038146972656e+00,1.286999940872192383e+00,1.065353216000000000e+09
-2.028000116348266602e+00,1.062999963760375977e+00,1.294999957084655762e+00,1.065353216000000000e+09
-2.065000057220458984e+00,1.435999989509582520e+00,1.259999990463256836e+00,1.065353216000000000e+09
-2.062000036239624023e+00,1.294999957084655762e+00,1.271999955177307129e+00,1.065353216000000000e+09
-2.046000003814697266e+00,1.154000043869018555e+00,1.279000043869018555e+00,1.065353216000000000e+09
-2.040999889373779297e+00,1.011000037193298340e+00,1.292999982833862305e+00,1.065353216000000000e+09
-2.082000017166137695e+00,1.378000020980834961e+00,1.251000046730041504e+00,1.065353216000000000e+09
-2.073999881744384766e+00,1.235999941825866699e+00,1.263000011444091797e+00,1.065353216000000000e+09
-2.059000015258789062e+00,1.100999951362609863e+00,1.274000048637390137e+00,1.065353216000000000e+09
-2.040999889373779297e+00,9.549999833106994629e-01,1.284999966621398926e+00,1.065353216000000000e+09
-2.108999967575073242e+00,1.325999975204467773e+00,1.248000025749206543e+00,1.065353216000000000e+09
-2.092000007629394531e+00,1.182000041007995605e+00,1.258000016212463379e+00,1.065353216000000000e+09
-2.069999933242797852e+00,1.046000003814697266e+00,1.269000053405761719e+00,1.065353216000000000e+09
-2.052000045776367188e+00,9.049999713897705078e-01,1.282999992370605469e+00,1.065353216000000000e+09
-2.122999906539916992e+00,1.266999959945678711e+00,1.238000035285949707e+00,1.065353216000000000e+09
-2.101999998092651367e+00,1.126000046730041504e+00,1.250000000000000000e+00,1.065353216000000000e+09
-2.084000110626220703e+00,9.950000047683715820e-01,1.266999959945678711e+00,1.065353216000000000e+09
-2.065000057220458984e+00,8.560000061988830566e-01,1.284000039100646973e+00,1.065353216000000000e+09
-2.128000020980834961e+00,1.202999949455261230e+00,1.225000023841857910e+00,1.065353216000000000e+09
-2.111999988555908203e+00,1.069000005722045898e+00,1.243000030517578125e+00,1.065353216000000000e+09
-2.086999893188476562e+00,9.390000104904174805e-01,1.258000016212463379e+00,1.065353216000000000e+09
-2.063999891281127930e+00,8.029999732971191406e-01,1.276000022888183594e+00,1.065353216000000000e+09
-2.141000032424926758e+00,1.146000027656555176e+00,1.215999960899353027e+00,1.065353216000000000e+09
-2.121000051498413086e+00,1.013000011444091797e+00,1.235999941825866699e+00,1.065353216000000000e+09
-2.095999956130981445e+00,8.870000243186950684e-01,1.254999995231628418e+00,1.065353216000000000e+09
-2.072000026702880859e+00,7.530000209808349609e-01,1.274999976158142090e+00,1.065353216000000000e+09
-2.154999971389770508e+00,1.088999986648559570e+00,1.210000038146972656e+00,1.065353216000000000e+09
-2.130000114440917969e+00,9.580000042915344238e-01,1.228999972343444824e+00,1.065353216000000000e+09
-2.095999956130981445e+00,8.320000171661376953e-01,1.246000051498413086e+00,1.065353216000000000e+09
-2.078999996185302734e+00,7.039999961853027344e-01,1.274000048637390137e+00,1.065353216000000000e+09
-2.167999982833862305e+00,1.032999992370605469e+00,1.202999949455261230e+00,1.065353216000000000e+09
-2.141999959945678711e+00,9.049999713897705078e-01,1.225000023841857910e+00,1.065353216000000000e+09
-2.107000112533569336e+00,7.810000181198120117e-01,1.243999958038330078e+00,1.065353216000000000e+09
-2.072999954223632812e+00,6.510000228881835938e-01,1.266000032424926758e+00,1.065353216000000000e+09
-2.178999900817871094e+00,9.769999980926513672e-01,1.197000026702880859e+00,1.065353216000000000e+09
-2.151000022888183594e+00,8.510000109672546387e-01,1.220999956130981445e+00,1.065353216000000000e+09
-2.112999916076660156e+00,7.300000190734863281e-01,1.241000056266784668e+00,1.065353216000000000e+09
-2.073999881744384766e+00,6.010000109672546387e-01,1.261999964714050293e+00,1.065353216000000000e+09
-2.194000005722045898e+00,9.219999909400939941e-01,1.192999958992004395e+00,1.065353216000000000e+09
-2.158999919891357422e+00,7.969999909400939941e-01,1.215999960899353027e+00,1.065353216000000000e+09
-2.119999885559082031e+00,6.790000200271606445e-01,1.238000035285949707e+00,1.065353216000000000e+09
-2.082999944686889648e+00,5.550000071525573730e-01,1.264000058174133301e+00,1.065353216000000000e+09
-2.204999923706054688e+00,8.659999966621398926e-01,1.187999963760375977e+00,1.065353216000000000e+09
-2.165999889373779297e+00,7.440000176429748535e-01,1.212000012397766113e+00,1.065353216000000000e+09
-2.131000041961669922e+00,6.299999952316284180e-01,1.238999962806701660e+00,1.065353216000000000e+09
-2.085999965667724609e+00,5.059999823570251465e-01,1.263000011444091797e+00,1.065353216000000000e+09
-2.216000080108642578e+00,8.109999895095825195e-01,1.182999968528747559e+00,1.065353216000000000e+09
-2.174000024795532227e+00,6.909999847412109375e-01,1.208999991416931152e+00,1.065353216000000000e+09
-2.125000000000000000e+00,5.770000219345092773e-01,1.230999946594238281e+00,1.065353216000000000e+09
-2.091000080108642578e+00,4.589999914169311523e-01,1.264000058174133301e+00,1.065353216000000000e+09
-2.226000070571899414e+00,7.559999823570251465e-01,1.179000020027160645e+00,1.065353216000000000e+09
-2.171000003814697266e+00,6.359999775886535645e-01,1.200999975204467773e+00,1.065353216000000000e+09
-2.128999948501586914e+00,5.270000100135803223e-01,1.228999972343444824e+00,1.065353216000000000e+09
-2.082999944686889648e+00,4.099999964237213135e-01,1.258000016212463379e+00,1.065353216000000000e+09
-2.230000019073486328e+00,6.990000009536743164e-01,1.172999978065490723e+00,1.065353216000000000e+09
-2.187000036239624023e+00,5.860000252723693848e-01,1.202999949455261230e+00,1.065353216000000000e+09
-2.138000011444091797e+00,4.779999852180480957e-01,1.230000019073486328e+00,1.065353216000000000e+09
-2.086999893188476562e+00,3.639999926090240479e-01,1.258999943733215332e+00,1.065353216000000000e+09
-2.244999885559082031e+00,6.470000147819519043e-01,1.172999978065490723e+00,1.065353216000000000e+09
-2.193000078201293945e+00,5.339999794960021973e-01,1.200999975204467773e+00,1.065353216000000000e+09
-2.135999917984008789e+00,4.280000030994415283e-01,1.225999951362609863e+00,1.065353216000000000e+09
-2.094000101089477539e+00,3.179999887943267822e-01,1.263000011444091797e+00,1.065353216000000000e+09
-2.246999979019165039e+00,5.910000205039978027e-01,1.167000055313110352e+00,1.065353216000000000e+09
-2.196000099182128906e+00,4.810000061988830566e-01,1.197999954223632812e+00,1.065353216000000000e+09
-2.144999980926513672e+00,3.799999952316284180e-01,1.228999972343444824e+00,1.065353216000000000e+09
-2.094000101089477539e+00,2.709999978542327881e-01,1.263000011444091797e+00,1.065353216000000000e+09
-2.244999885559082031e+00,5.329999923706054688e-01,1.159000039100646973e+00,1.065353216000000000e+09
-2.196000099182128906e+00,4.289999902248382568e-01,1.194000005722045898e+00,1.065353216000000000e+09
-2.148000001907348633e+00,3.310000002384185791e-01,1.228999972343444824e+00,1.065353216000000000e+09
-2.088999986648559570e+00,2.249999940395355225e-01,1.261000037193298340e+00,1.065353216000000000e+09
-2.256000041961669922e+00,4.799999892711639404e-01,1.159999966621398926e+00,1.065353216000000000e+09
-2.194000005722045898e+00,3.759999871253967285e-01,1.190000057220458984e+00,1.065353216000000000e+09
-2.148000001907348633e+00,2.820000052452087402e-01,1.228000044822692871e+00,1.065353216000000000e+09
-2.084000110626220703e+00,1.780000030994415283e-01,1.258999943733215332e+00,1.065353216000000000e+09
-2.250000000000000000e+00,4.239999949932098389e-01,1.151999950408935547e+00,1.065353216000000000e+09
-2.200999975204467773e+00,3.260000050067901611e-01,1.190999984741210938e+00,1.065353216000000000e+09
-2.141000032424926758e+00,2.329999953508377075e-01,1.223000049591064453e+00,1.065353216000000000e+09
-2.086999893188476562e+00,1.330000013113021851e-01,1.263000011444091797e+00,1.065353216000000000e+09
-2.257999897003173828e+00,3.700000047683715820e-01,1.151999950408935547e+00,1.065353216000000000e+09
-2.197999954223632812e+00,2.739999890327453613e-01,1.187999963760375977e+00,1.065353216000000000e+09
-2.141999959945678711e+00,1.840000003576278687e-01,1.223999977111816406e+00,1.065353216000000000e+09
-2.085999965667724609e+00,8.799999952316284180e-02,1.264000058174133301e+00,1.065353216000000000e+09
-2.259999990463256836e+00,3.160000145435333252e-01,1.149999976158142090e+00,1.065353216000000000e+09
-2.204999923706054688e+00,2.240000069141387939e-01,1.190000057220458984e+00,1.065353216000000000e+09
-2.145999908447265625e+00,1.369999945163726807e-01,1.226999998092651367e+00,1.065353216000000000e+09
-2.078000068664550781e+00,4.199999943375587463e-02,1.263000011444091797e+00,1.065353216000000000e+09
-2.265000104904174805e+00,2.619999945163726807e-01,1.149000048637390137e+00,1.065353216000000000e+09
-2.201999902725219727e+00,1.720000058412551880e-01,1.187999963760375977e+00,1.065353216000000000e+09
-2.142999887466430664e+00,8.900000154972076416e-02,1.225999951362609863e+00,1.065353216000000000e+09
-2.078999996185302734e+00,-1.000000047497451305e-03,1.266000032424926758e+00,1.065353216000000000e+09
-2.266000032424926758e+00,2.090000063180923462e-01,1.148000001907348633e+00,1.065353216000000000e+09
-2.207000017166137695e+00,1.209999993443489075e-01,1.190000057220458984e+00,1.065353216000000000e+09
-2.137000083923339844e+00,3.999999910593032837e-02,1.225000023841857910e+00,1.065353216000000000e+09
-2.066999912261962891e+00,-4.600000008940696716e-02,1.263000011444091797e+00,1.065353216000000000e+09
-2.266000032424926758e+00,1.539999991655349731e-01,1.146999955177307129e+00,1.065353216000000000e+09
-2.198999881744384766e+00,7.100000232458114624e-02,1.187000036239624023e+00,1.065353216000000000e+09
-2.138999938964843750e+00,-6.000000052154064178e-03,1.228000044822692871e+00,1.065353216000000000e+09
-2.063999891281127930e+00,-9.000000357627868652e-02,1.264999985694885254e+00,1.065353216000000000e+09
-2.270999908447265625e+00,1.010000035166740417e-01,1.149000048637390137e+00,1.065353216000000000e+09
-2.198999881744384766e+00,1.999999955296516418e-02,1.187999963760375977e+00,1.065353216000000000e+09
-2.127000093460083008e+00,-5.299999937415122986e-02,1.225000023841857910e+00,1.065353216000000000e+09
-2.061000108718872070e+00,-1.350000053644180298e-01,1.269000053405761719e+00,1.065353216000000000e+09
-2.263999938964843750e+00,4.699999839067459106e-02,1.146000027656555176e+00,1.065353216000000000e+09
-2.200000047683715820e+00,-2.999999932944774628e-02,1.190000057220458984e+00,1.065353216000000000e+09
-2.125000000000000000e+00,-1.000000014901161194e-01,1.226999998092651367e+00,1.065353216000000000e+09
-2.055999994277954102e+00,-1.780000030994415283e-01,1.271000027656555176e+00,1.065353216000000000e+09
-2.263999938964843750e+00,-6.000000052154064178e-03,1.146999955177307129e+00,1.065353216000000000e+09
-2.187000036239624023e+00,-7.999999821186065674e-02,1.185999989509582520e+00,1.065353216000000000e+09
-2.122999906539916992e+00,-1.480000019073486328e-01,1.230000019073486328e+00,1.065353216000000000e+09
-2.051000118255615234e+00,-2.220000028610229492e-01,1.273000001907348633e+00,1.065353216000000000e+09
-2.267999887466430664e+00,-5.999999865889549255e-02,1.149999976158142090e+00,1.065353216000000000e+09
-2.197000026702880859e+00,-1.309999972581863403e-01,1.195000052452087402e+00,1.065353216000000000e+09
-2.118000030517578125e+00,-1.949999928474426270e-01,1.230999946594238281e+00,1.065353216000000000e+09
-2.042999982833862305e+00,-2.660000026226043701e-01,1.274999976158142090e+00,1.065353216000000000e+09
-2.263000011444091797e+00,-1.129999980330467224e-01,1.149999976158142090e+00,1.065353216000000000e+09
-2.191999912261962891e+00,-1.809999942779541016e-01,1.195999979972839355e+00,1.065353216000000000e+09
-2.111000061035156250e+00,-2.409999966621398926e-01,1.233000040054321289e+00,1.065353216000000000e+09
-2.040999889373779297e+00,-3.100000023841857910e-01,1.281000018119812012e+00,1.065353216000000000e+09
-2.246999979019165039e+00,-1.659999936819076538e-01,1.144999980926513672e+00,1.065353216000000000e+09
-2.184000015258789062e+00,-2.310000061988830566e-01,1.197000026702880859e+00,1.065353216000000000e+09
-2.108000040054321289e+00,-2.890000045299530029e-01,1.236999988555908203e+00,1.065353216000000000e+09
-2.030999898910522461e+00,-3.529999852180480957e-01,1.282999992370605469e+00,1.065353216000000000e+09
-2.253999948501586914e+00,-2.210000008344650269e-01,1.151999950408935547e+00,1.065353216000000000e+09
-2.167999982833862305e+00,-2.800000011920928955e-01,1.192999958992004395e+00,1.065353216000000000e+09
-2.104000091552734375e+00,-3.359999954700469971e-01,1.241999983787536621e+00,1.065353216000000000e+09
-2.028000116348266602e+00,-3.970000147819519043e-01,1.289000034332275391e+00,1.065353216000000000e+09
-2.242000102996826172e+00,-2.730000019073486328e-01,1.151000022888183594e+00,1.065353216000000000e+09
-2.167999982833862305e+00,-3.310000002384185791e-01,1.199000000953674316e+00,1.065353216000000000e+09
-2.088999986648559570e+00,-3.810000121593475342e-01,1.240000009536743164e+00,1.065353216000000000e+09
-2.022000074386596680e+00,-4.399999976158142090e-01,1.294000029563903809e+00,1.065353216000000000e+09
-2.243999958038330078e+00,-3.280000090599060059e-01,1.156999945640563965e+00,1.065353216000000000e+09
-2.155999898910522461e+00,-3.799999952316284180e-01,1.199000000953674316e+00,1.065353216000000000e+09
-2.084000110626220703e+00,-4.280000030994415283e-01,1.245000004768371582e+00,1.065353216000000000e+09
-2.006999969482421875e+00,-4.819999933242797852e-01,1.292999982833862305e+00,1.065353216000000000e+09
-2.240999937057495117e+00,-3.819999992847442627e-01,1.161000013351440430e+00,1.065353216000000000e+09
-2.157000064849853516e+00,-4.309999942779541016e-01,1.207000017166137695e+00,1.065353216000000000e+09
-2.088999986648559570e+00,-4.769999980926513672e-01,1.256000041961669922e+00,1.065353216000000000e+09
-2.003999948501586914e+00,-5.260000228881835938e-01,1.300999999046325684e+00,1.065353216000000000e+09
-2.233000040054321289e+00,-4.359999895095825195e-01,1.164000034332275391e+00,1.065353216000000000e+09
-2.150000095367431641e+00,-4.819999933242797852e-01,1.210999965667724609e+00,1.065353216000000000e+09
-2.073999881744384766e+00,-5.220000147819519043e-01,1.256000041961669922e+00,1.065353216000000000e+09
-1.991000056266784668e+00,-5.680000185966491699e-01,1.302999973297119141e+00,1.065353216000000000e+09
-2.226000070571899414e+00,-4.900000095367431641e-01,1.167999982833862305e+00,1.065353216000000000e+09
-2.141999959945678711e+00,-5.320000052452087402e-01,1.215000033378601074e+00,1.065353216000000000e+09
-2.066999912261962891e+00,-5.699999928474426270e-01,1.261999964714050293e+00,1.065353216000000000e+09
-1.985000014305114746e+00,-6.119999885559082031e-01,1.309999942779541016e+00,1.065353216000000000e+09
-2.221999883651733398e+00,-5.450000166893005371e-01,1.174000024795532227e+00,1.065353216000000000e+09
-2.137000083923339844e+00,-5.830000042915344238e-01,1.220999956130981445e+00,1.065353216000000000e+09
-2.052999973297119141e+00,-6.150000095367431641e-01,1.263000011444091797e+00,1.065353216000000000e+09
-1.985000014305114746e+00,-6.579999923706054688e-01,1.320999979972839355e+00,1.065353216000000000e+09
-2.210999965667724609e+00,-5.979999899864196777e-01,1.177000045776367188e+00,1.065353216000000000e+09
-2.127000093460083008e+00,-6.330000162124633789e-01,1.225999951362609863e+00,1.065353216000000000e+09
-2.048000097274780273e+00,-6.629999876022338867e-01,1.271000027656555176e+00,1.065353216000000000e+09
-1.968000054359436035e+00,-6.990000009536743164e-01,1.322000026702880859e+00,1.065353216000000000e+09
-2.198999881744384766e+00,-6.510000228881835938e-01,1.179999947547912598e+00,1.065353216000000000e+09
-2.118000030517578125e+00,-6.830000281333923340e-01,1.230999946594238281e+00,1.065353216000000000e+09
-2.042000055313110352e+00,-7.110000252723693848e-01,1.279000043869018555e+00,1.065353216000000000e+09
-1.960999965667724609e+00,-7.440000176429748535e-01,1.330999970436096191e+00,1.065353216000000000e+09
-2.196000099182128906e+00,-7.080000042915344238e-01,1.190000057220458984e+00,1.065353216000000000e+09
-2.108000040054321289e+00,-7.340000271797180176e-01,1.236999988555908203e+00,1.065353216000000000e+09
-2.036000013351440430e+00,-7.599999904632568359e-01,1.287999987602233887e+00,1.065353216000000000e+09
-1.952999949455261230e+00,-7.879999876022338867e-01,1.338000059127807617e+00,1.065353216000000000e+09
-2.184000015258789062e+00,-7.620000243186950684e-01,1.195000052452087402e+00,1.065353216000000000e+09
-2.095000028610229492e+00,-7.839999794960021973e-01,1.241999983787536621e+00,1.065353216000000000e+09
-2.023000001907348633e+00,-8.059999942779541016e-01,1.292999982833862305e+00,1.065353216000000000e+09
-1.940999984741210938e+00,-8.299999833106994629e-01,1.343999981880187988e+00,1.065353216000000000e+09
-2.168999910354614258e+00,-8.149999976158142090e-01,1.199000000953674316e+00,1.065353216000000000e+09
-2.086999893188476562e+00,-8.360000252723693848e-01,1.250000000000000000e+00,1.065353216000000000e+09
-2.012000083923339844e+00,-8.529999852180480957e-01,1.299000024795532227e+00,1.065353216000000000e+09
-1.934000015258789062e+00,-8.759999871253967285e-01,1.353999972343444824e+00,1.065353216000000000e+09
-2.157000064849853516e+00,-8.700000047683715820e-01,1.205999970436096191e+00,1.065353216000000000e+09
-2.082000017166137695e+00,-8.899999856948852539e-01,1.261999964714050293e+00,1.065353216000000000e+09
-1.996999979019165039e+00,-8.999999761581420898e-01,1.304999947547912598e+00,1.065353216000000000e+09
-1.917000055313110352e+00,-9.169999957084655762e-01,1.356999993324279785e+00,1.065353216000000000e+09
-2.147000074386596680e+00,-9.269999861717224121e-01,1.213999986648559570e+00,1.065353216000000000e+09
-2.063999891281127930e+00,-9.380000233650207520e-01,1.264999985694885254e+00,1.065353216000000000e+09
-1.986999988555908203e+00,-9.480000138282775879e-01,1.314000010490417480e+00,1.065353216000000000e+09
-1.906999945640563965e+00,-9.620000123977661133e-01,1.366999983787536621e+00,1.065353216000000000e+09
-2.132999897003173828e+00,-9.810000061988830566e-01,1.220999956130981445e+00,1.065353216000000000e+09
-2.053999900817871094e+00,-9.919999837875366211e-01,1.274999976158142090e+00,1.065353216000000000e+09
-1.970000028610229492e+00,-9.940000176429748535e-01,1.319000005722045898e+00,1.065353216000000000e+09
-1.891999959945678711e+00,-1.004999995231628418e+00,1.373000025749206543e+00,1.065353216000000000e+09
-2.117000102996826172e+00,-1.036000013351440430e+00,1.228999972343444824e+00,1.065353216000000000e+09
-2.040999889373779297e+00,-1.044000029563903809e+00,1.284000039100646973e+00,1.065353216000000000e+09
-1.963000059127807617e+00,-1.044999957084655762e+00,1.330999970436096191e+00,1.065353216000000000e+09
-1.873999953269958496e+00,-1.046000003814697266e+00,1.376999974250793457e+00,1.065353216000000000e+09
-2.108999967575073242e+00,-1.095000028610229492e+00,1.241000056266784668e+00,1.065353216000000000e+09
-2.015000104904174805e+00,-1.090000033378601074e+00,1.286000013351440430e+00,1.065353216000000000e+09
-1.945000052452087402e+00,-1.090999960899353027e+00,1.337000012397766113e+00,1.065353216000000000e+09
-1.865000009536743164e+00,-1.093000054359436035e+00,1.389000058174133301e+00,1.065353216000000000e+09
-2.086999893188476562e+00,-1.148000001907348633e+00,1.246999979019165039e+00,1.065353216000000000e+09
-2.009000062942504883e+00,-1.146999955177307129e+00,1.300999999046325684e+00,1.065353216000000000e+09
-1.927000045776367188e+00,-1.136999964714050293e+00,1.343999981880187988e+00,1.065353216000000000e+09
-1.848999977111816406e+00,-1.136000037193298340e+00,1.396000027656555176e+00,1.065353216000000000e+09
-2.065000057220458984e+00,-1.200999975204467773e+00,1.253000020980834961e+00,1.065353216000000000e+09
-1.988999962806701660e+00,-1.197000026702880859e+00,1.307999968528747559e+00,1.065353216000000000e+09
-1.914999961853027344e+00,-1.187999963760375977e+00,1.355999946594238281e+00,1.065353216000000000e+09
-1.840999960899353027e+00,-1.184000015258789062e+00,1.411000013351440430e+00,1.065353216000000000e+09
-2.042999982833862305e+00,-1.254999995231628418e+00,1.261000037193298340e+00,1.065353216000000000e+09
-1.973999977111816406e+00,-1.250000000000000000e+00,1.317999958992004395e+00,1.065353216000000000e+09
-1.898000001907348633e+00,-1.235999941825866699e+00,1.365000009536743164e+00,1.065353216000000000e+09
-1.812000036239624023e+00,-1.220000028610229492e+00,1.409999966621398926e+00,1.065353216000000000e+09
-2.033999919891357422e+00,-1.317000031471252441e+00,1.276999950408935547e+00,1.065353216000000000e+09
-1.949000000953674316e+00,-1.297000050544738770e+00,1.322999954223632812e+00,1.065353216000000000e+09
-1.881999969482421875e+00,-1.284999966621398926e+00,1.375000000000000000e+00,1.065353216000000000e+09
-1.804000020027160645e+00,-1.269999980926513672e+00,1.424999952316284180e+00,1.065353216000000000e+09
-2.013999938964843750e+00,-1.373999953269958496e+00,1.286999940872192383e+00,1.065353216000000000e+09
-1.929999947547912598e+00,-1.350000023841857910e+00,1.333999991416931152e+00,1.065353216000000000e+09
-1.861999988555908203e+00,-1.332000017166137695e+00,1.383000016212463379e+00,1.065353216000000000e+09
-1.781000018119812012e+00,-1.309999942779541016e+00,1.429999947547912598e+00,1.065353216000000000e+09
-2.000999927520751953e+00,-1.434999942779541016e+00,1.302999973297119141e+00,1.065353216000000000e+09
-1.912999987602233887e+00,-1.404000043869018555e+00,1.347000002861022949e+00,1.065353216000000000e+09
-1.842000007629394531e+00,-1.379999995231628418e+00,1.393000006675720215e+00,1.065353216000000000e+09
-1.763000011444091797e+00,-1.353999972343444824e+00,1.439000010490417480e+00,1.065353216000000000e+09
-1.973000049591064453e+00,-1.488999962806701660e+00,1.310999989509582520e+00,1.065353216000000000e+09
-1.894000053405761719e+00,-1.457999944686889648e+00,1.358999967575073242e+00,1.065353216000000000e+09
-1.822000026702880859e+00,-1.427999973297119141e+00,1.402999997138977051e+00,1.065353216000000000e+09
-1.743000030517578125e+00,-1.398000001907348633e+00,1.447999954223632812e+00,1.065353216000000000e+09
-1.949000000953674316e+00,-1.544000029563903809e+00,1.322000026702880859e+00,1.065353216000000000e+09
-1.866000056266784668e+00,-1.506000041961669922e+00,1.366000056266784668e+00,1.065353216000000000e+09
-1.805999994277954102e+00,-1.480000019073486328e+00,1.417000055313110352e+00,1.065353216000000000e+09
-1.728000044822692871e+00,-1.445999979972839355e+00,1.460999965667724609e+00,1.065353216000000000e+09
-1.922000050544738770e+00,-1.598999977111816406e+00,1.332000017166137695e+00,1.065353216000000000e+09
-1.853999972343444824e+00,-1.567999958992004395e+00,1.384999990463256836e+00,1.065353216000000000e+09
-1.786000013351440430e+00,-1.531000018119812012e+00,1.429000020027160645e+00,1.065353216000000000e+09
-1.705999970436096191e+00,-1.488000035285949707e+00,1.470000028610229492e+00,1.065353216000000000e+09
-1.891000032424926758e+00,-1.651999950408935547e+00,1.342000007629394531e+00,1.065353216000000000e+09
-1.825999975204467773e+00,-1.616999983787536621e+00,1.394999980926513672e+00,1.065353216000000000e+09
-1.761000037193298340e+00,-1.577000021934509277e+00,1.437999963760375977e+00,1.065353216000000000e+09
-1.692999958992004395e+00,-1.539999961853027344e+00,1.486999988555908203e+00,1.065353216000000000e+09
-1.718999981880187988e+00,-1.575000047683715820e+00,1.248999953269958496e+00,1.065353216000000000e+09
-1.759999990463256836e+00,-1.633000016212463379e+00,1.376000046730041504e+00,1.065353216000000000e+09
-1.726999998092651367e+00,-1.616000056266784668e+00,1.440999984741210938e+00,1.065353216000000000e+09
-1.667999982833862305e+00,-1.582000017166137695e+00,1.495000004768371582e+00,1.065353216000000000e+09
-1.628000020980834961e+00,-1.565000057220458984e+00,1.212000012397766113e+00,1.065353216000000000e+09
-1.641999959945678711e+00,-1.593999981880187988e+00,1.314000010490417480e+00,1.065353216000000000e+09
-1.639999985694885254e+00,-1.603000044822692871e+00,1.399000048637390137e+00,1.065353216000000000e+09
-1.633000016212463379e+00,-1.613999962806701660e+00,1.493999958038330078e+00,1.065353216000000000e+09
-1.572000026702880859e+00,-1.585000038146972656e+00,1.202000021934509277e+00,1.065353216000000000e+09
-1.567000031471252441e+00,-1.592000007629394531e+00,1.284999966621398926e+00,1.065353216000000000e+09
-1.552000045776367188e+00,-1.585999965667724609e+00,1.355000019073486328e+00,1.065353216000000000e+09
0.000000000000000000e+00,0.000000000000000000e+00,0.000000000000000000e+00,1.065353216000000000e+09
-1.501999974250793457e+00,-1.588999986648559570e+00,1.179999947547912598e+00,1.065353216000000000e+09
-1.488999962806701660e+00,-1.582999944686889648e+00,1.251999974250793457e+00,1.065353216000000000e+09
-1.455999970436096191e+00,-1.554000020027160645e+00,1.302000045776367188e+00,1.065353216000000000e+09
-6.309999823570251465e-01,-6.779999732971191406e-01,6.029999852180480957e-01,1.065353216000000000e+09
-1.411000013351440430e+00,-1.565999984741210938e+00,1.139999985694885254e+00,1.065353216000000000e+09
-1.389999985694885254e+00,-1.549000024795532227e+00,1.200999975204467773e+00,1.065353216000000000e+09
-1.391000032424926758e+00,-1.550999999046325684e+00,1.274999976158142090e+00,1.065353216000000000e+09
-6.269999742507934570e-01,-7.030000090599060059e-01,6.140000224113464355e-01,1.065353216000000000e+09
-1.325999975204467773e+00,-1.544000029563903809e+00,1.105000019073486328e+00,1.065353216000000000e+09
-1.325000047683715820e+00,-1.546000003814697266e+00,1.177999973297119141e+00,1.065353216000000000e+09
0.000000000000000000e+00,0.000000000000000000e+00,0.000000000000000000e+00,1.065353216000000000e+09
-6.309999823570251465e-01,-7.379999756813049316e-01,6.330000162124633789e-01,1.065353216000000000e+09
-1.261999964714050293e+00,-1.542999982833862305e+00,1.085000038146972656e+00,1.065353216000000000e+09
-1.261000037193298340e+00,-1.539999961853027344e+00,1.152999997138977051e+00,1.065353216000000000e+09
-1.268000006675720215e+00,-1.544999957084655762e+00,1.226999998092651367e+00,1.065353216000000000e+09
-6.269999742507934570e-01,-7.630000114440917969e-01,6.439999938011169434e-01,1.065353216000000000e+09
-1.203999996185302734e+00,-1.544999957084655762e+00,1.069000005722045898e+00,1.065353216000000000e+09
-1.217000007629394531e+00,-1.559000015258789062e+00,1.149000048637390137e+00,1.065353216000000000e+09
0.000000000000000000e+00,0.000000000000000000e+00,0.000000000000000000e+00,1.065353216000000000e+09
-6.050000190734863281e-01,-7.689999938011169434e-01,6.380000114440917969e-01,1.065353216000000000e+09
-1.159000039100646973e+00,-1.564000010490417480e+00,1.065000057220458984e+00,1.065353216000000000e+09
-1.171000003814697266e+00,-1.572000026702880859e+00,1.139999985694885254e+00,1.065353216000000000e+09
-1.169999957084655762e+00,-1.559999942779541016e+00,1.199000000953674316e+00,1.065353216000000000e+09
-5.989999771118164062e-01,-7.950000166893005371e-01,6.499999761581420898e-01,1.065353216000000000e+09
-1.108999967575073242e+00,-1.572999954223632812e+00,1.055999994277954102e+00,1.065353216000000000e+09
-1.115000009536743164e+00,-1.570000052452087402e+00,1.121999979019165039e+00,1.065353216000000000e+09
-1.125000000000000000e+00,-1.570000052452087402e+00,1.189000010490417480e+00,1.065353216000000000e+09
-5.799999833106994629e-01,-8.040000200271606445e-01,6.470000147819519043e-01,1.065353216000000000e+09
-1.052999973297119141e+00,-1.572000026702880859e+00,1.041000008583068848e+00,1.065353216000000000e+09
-1.057999968528747559e+00,-1.565000057220458984e+00,1.103000044822692871e+00,1.065353216000000000e+09
-1.059000015258789062e+00,-1.547999978065490723e+00,1.156000018119812012e+00,1.065353216000000000e+09
-5.609999895095825195e-01,-8.130000233650207520e-01,6.449999809265136719e-01,1.065353216000000000e+09
-9.890000224113464355e-01,-1.554999947547912598e+00,1.016999959945678711e+00,1.065353216000000000e+09
-9.919999837875366211e-01,-1.542999982833862305e+00,1.072999954223632812e+00,1.065353216000000000e+09
-1.001000046730041504e+00,-1.534000039100646973e+00,1.129999995231628418e+00,1.065353216000000000e+09
-5.400000214576721191e-01,-8.190000057220458984e-01,6.399999856948852539e-01,1.065353216000000000e+09
-9.290000200271606445e-01,-1.542000055313110352e+00,9.959999918937683105e-01,1.065353216000000000e+09
-9.399999976158142090e-01,-1.537999987602233887e+00,1.057000041007995605e+00,1.065353216000000000e+09
-9.539999961853027344e-01,-1.534999966621398926e+00,1.116000056266784668e+00,1.065353216000000000e+09
-9.660000205039978027e-01,-1.531999945640563965e+00,1.182000041007995605e+00,1.065353216000000000e+09
-8.790000081062316895e-01,-1.539000034332275391e+00,9.840000271797180176e-01,1.065353216000000000e+09
-8.930000066757202148e-01,-1.536999940872192383e+00,1.044000029563903809e+00,1.065353216000000000e+09
-9.100000262260437012e-01,-1.537999987602233887e+00,1.105000019073486328e+00,1.065353216000000000e+09
-9.279999732971191406e-01,-1.542999982833862305e+00,1.174999952316284180e+00,1.065353216000000000e+09
-8.309999704360961914e-01,-1.539000034332275391e+00,9.739999771118164062e-01,1.065353216000000000e+09
-8.500000238418579102e-01,-1.544999957084655762e+00,1.037999987602233887e+00,1.065353216000000000e+09
-8.700000047683715820e-01,-1.547000050544738770e+00,1.098000049591064453e+00,1.065353216000000000e+09
-8.939999938011169434e-01,-1.557000041007995605e+00,1.172000050544738770e+00,1.065353216000000000e+09
-7.910000085830688477e-01,-1.552999973297119141e+00,9.729999899864196777e-01,1.065353216000000000e+09
-8.130000233650207520e-01,-1.559000015258789062e+00,1.036999940872192383e+00,1.065353216000000000e+09
-8.370000123977661133e-01,-1.567000031471252441e+00,1.100000023841857910e+00,1.065353216000000000e+09
-8.560000061988830566e-01,-1.565999984741210938e+00,1.164999961853027344e+00,1.065353216000000000e+09
-7.509999871253967285e-01,-1.565999984741210938e+00,9.729999899864196777e-01,1.065353216000000000e+09
-7.720000147819519043e-01,-1.567999958992004395e+00,1.032999992370605469e+00,1.065353216000000000e+09
-7.940000295639038086e-01,-1.567999958992004395e+00,1.088999986648559570e+00,1.065353216000000000e+09
-8.109999895095825195e-01,-1.560999989509582520e+00,1.148000001907348633e+00,1.065353216000000000e+09
-7.049999833106994629e-01,-1.565000057220458984e+00,9.639999866485595703e-01,1.065353216000000000e+09
