x,y,z,intensity
1.213999986648559570e+00,1.062399959564208984e+01,7.620999813079833984e+00,1.065353216000000000e+09
8.379999995231628418e-01,1.079100036621093750e+01,7.534999847412109375e+00,1.065353216000000000e+09
4.460000097751617432e-01,1.093200016021728516e+01,7.447000026702880859e+00,1.065353216000000000e+09
4.500000178813934326e-02,1.105000019073486328e+01,7.344999790191650391e+00,1.065353216000000000e+09
9.800000190734863281e-01,1.059300041198730469e+01,7.570000171661376953e+00,1.065353216000000000e+09
5.920000076293945312e-01,1.071100044250488281e+01,7.469999790191650391e+00,1.065353216000000000e+09
1.930000036954879761e-01,1.083199977874755859e+01,7.386000156402587891e+00,1.065353216000000000e+09
-2.160000056028366089e-01,1.090600013732910156e+01,7.272999763488769531e+00,1.065353216000000000e+09
7.459999918937683105e-01,1.053600025177001953e+01,7.504000186920166016e+00,1.065353216000000000e+09
3.510000109672546387e-01,1.063500022888183594e+01,7.409999847412109375e+00,1.065353216000000000e+09
-5.499999970197677612e-02,1.070899963378906250e+01,7.314000129699707031e+00,1.065353216000000000e+09
-4.679999947547912598e-01,1.076599979400634766e+01,7.209000110626220703e+00,1.065353216000000000e+09
5.130000114440917969e-01,1.047000026702880859e+01,7.436999797821044922e+00,1.065353216000000000e+09
1.129999980330467224e-01,1.054100036621093750e+01,7.340000152587890625e+00,1.065353216000000000e+09
-2.980000078678131104e-01,1.061100006103515625e+01,7.260000228881835938e+00,1.065353216000000000e+09
-7.149999737739562988e-01,1.062500000000000000e+01,7.146999835968017578e+00,1.065353216000000000e+09
2.860000133514404297e-01,1.042500019073486328e+01,7.388000011444091797e+00,1.065353216000000000e+09
-1.209999993443489075e-01,1.046000003814697266e+01,7.285999774932861328e+00,1.065353216000000000e+09
-5.350000262260437012e-01,1.047799968719482422e+01,7.188000202178955078e+00,1.065353216000000000e+09
-9.559999704360961914e-01,1.047299957275390625e+01,7.080999851226806641e+00,1.065353216000000000e+09
5.999999865889549255e-02,1.035400009155273438e+01,7.323999881744384766e+00,1.065353216000000000e+09
-3.510000109672546387e-01,1.037300014495849609e+01,7.229000091552734375e+00,1.065353216000000000e+09
-7.680000066757202148e-01,1.036299991607666016e+01,7.131000041961669922e+00,1.065353216000000000e+09
-1.189000010490417480e+00,1.032199954986572266e+01,7.019000053405761719e+00,1.065353216000000000e+09
-1.640000045299530029e-01,1.028800010681152344e+01,7.267000198364257812e+00,1.065353216000000000e+09
-5.770000219345092773e-01,1.026500034332275391e+01,7.160999774932861328e+00,1.065353216000000000e+09
-9.950000047683715820e-01,1.022999954223632812e+01,7.066999912261962891e+00,1.065353216000000000e+09
-1.417000055313110352e+00,1.017599964141845703e+01,6.964000225067138672e+00,1.065353216000000000e+09
-3.849999904632568359e-01,1.021199989318847656e+01,7.206999778747558594e+00,1.065353216000000000e+09
-8.009999990463256836e-01,1.017700004577636719e+01,7.111999988555908203e+00,1.065353216000000000e+09
-1.220000028610229492e+00,1.012300014495849609e+01,7.020999908447265625e+00,1.065353216000000000e+09
-1.639000058174133301e+00,1.002299976348876953e+01,6.907999992370605469e+00,1.065353216000000000e+09
-6.039999723434448242e-01,1.014900016784667969e+01,7.158999919891357422e+00,1.065353216000000000e+09
-1.018000006675720215e+00,1.006400012969970703e+01,7.047999858856201172e+00,1.065353216000000000e+09
-1.434999942779541016e+00,9.977000236511230469e+00,6.953000068664550781e+00,1.065353216000000000e+09
-1.851999998092651367e+00,9.857000350952148438e+00,6.843999862670898438e+00,1.065353216000000000e+09
-8.199999928474426270e-01,1.006999969482421875e+01,7.103000164031982422e+00,1.065353216000000000e+09
-1.233999967575073242e+00,9.967000007629394531e+00,6.999000072479248047e+00,1.065353216000000000e+09
-1.646999955177307129e+00,9.840000152587890625e+00,6.894999980926513672e+00,1.065353216000000000e+09
-2.055000066757202148e+00,9.671999931335449219e+00,6.770999908447265625e+00,1.065353216000000000e+09
-1.031999945640563965e+00,9.965000152587890625e+00,7.033999919891357422e+00,1.065353216000000000e+09
-1.442000031471252441e+00,9.842000007629394531e+00,6.932000160217285156e+00,1.065353216000000000e+09
-1.851999998092651367e+00,9.687999725341796875e+00,6.828000068664550781e+00,1.065353216000000000e+09
-2.259999990463256836e+00,9.527999877929687500e+00,6.728000164031982422e+00,1.065353216000000000e+09
-1.241999983787536621e+00,9.887999534606933594e+00,6.986999988555908203e+00,1.065353216000000000e+09
-1.644000053405761719e+00,9.706000328063964844e+00,6.861000061035156250e+00,1.065353216000000000e+09
-2.055999994277954102e+00,9.564000129699707031e+00,6.782999992370605469e+00,1.065353216000000000e+09
-2.454999923706054688e+00,9.361000061035156250e+00,6.671000003814697266e+00,1.065353216000000000e+09
-1.449000000953674316e+00,9.795000076293945312e+00,6.931000232696533203e+00,1.065353216000000000e+09
-1.850999951362609863e+00,9.607000350952148438e+00,6.820000171661376953e+00,1.065353216000000000e+09
-2.249000072479248047e+00,9.409000396728515625e+00,6.719999790191650391e+00,1.065353216000000000e+09
-2.641000032424926758e+00,9.175999641418457031e+00,6.605999946594238281e+00,1.065353216000000000e+09
-1.649999976158142090e+00,9.680999755859375000e+00,6.862999916076660156e+00,1.065353216000000000e+09
-2.049000024795532227e+00,9.487000465393066406e+00,6.767000198364257812e+00,1.065353216000000000e+09
-2.437000036239624023e+00,9.255000114440917969e+00,6.660999774932861328e+00,1.065353216000000000e+09
-8.980000019073486328e-01,2.868000030517578125e+00,2.085999965667724609e+00,1.065353216000000000e+09
-1.851999998092651367e+00,9.583999633789062500e+00,6.813000202178955078e+00,1.065353216000000000e+09
-2.240999937057495117e+00,9.354000091552734375e+00,6.706999778747558594e+00,1.065353216000000000e+09
-2.631000041961669922e+00,9.128999710083007812e+00,6.624000072479248047e+00,1.065353216000000000e+09
-9.100000262260437012e-01,2.681999921798706055e+00,1.973000049591064453e+00,1.065353216000000000e+09
-2.049000024795532227e+00,9.479999542236328125e+00,6.760000228881835938e+00,1.065353216000000000e+09
-2.430999994277954102e+00,9.225999832153320312e+00,6.655000209808349609e+00,1.065353216000000000e+09
-9.029999971389770508e-01,2.885999917984008789e+00,2.111999988555908203e+00,1.065353216000000000e+09
-8.740000128746032715e-01,2.388999938964843750e+00,1.779000043869018555e+00,1.065353216000000000e+09
-2.243999958038330078e+00,9.373999595642089844e+00,6.706999778747558594e+00,1.065353216000000000e+09
-2.618999958038330078e+00,9.107000350952148438e+00,6.611000061035156250e+00,1.065353216000000000e+09
-9.129999876022338867e-01,2.697000026702880859e+00,1.993000030517578125e+00,1.065353216000000000e+09
-9.369999766349792480e-01,2.387000083923339844e+00,1.799000024795532227e+00,1.065353216000000000e+09
-2.434999942779541016e+00,9.262000083923339844e+00,6.655000209808349609e+00,1.065353216000000000e+09
-9.089999794960021973e-01,2.914999961853027344e+00,2.130000114440917969e+00,1.065353216000000000e+09
-8.709999918937683105e-01,2.391000032424926758e+00,1.784000039100646973e+00,1.065353216000000000e+09
0.000000000000000000e+00,0.000000000000000000e+00,0.000000000000000000e+00,1.065353216000000000e+09
-2.624000072479248047e+00,9.152999877929687500e+00,6.607999801635742188e+00,1.065353216000000000e+09
-9.120000004768371582e-01,2.707999944686889648e+00,1.993999958038330078e+00,1.065353216000000000e+09
-9.309999942779541016e-01,2.384999990463256836e+00,1.799000024795532227e+00,1.065353216000000000e+09
-1.067999958992004395e+00,2.382999897003173828e+00,1.845000028610229492e+00,1.065353216000000000e+09
-2.815000057220458984e+00,9.059000015258789062e+00,6.573999881744384766e+00,1.065353216000000000e+09
-8.669999837875366211e-01,2.394999980926513672e+00,1.777999997138977051e+00,1.065353216000000000e+09
-9.959999918937683105e-01,2.388000011444091797e+00,1.820999979972839355e+00,1.065353216000000000e+09
-1.139000058174133301e+00,2.390000104904174805e+00,1.876999974250793457e+00,1.065353216000000000e+09
-9.129999876022338867e-01,2.721999883651733398e+00,1.986999988555908203e+00,1.065353216000000000e+09
-9.269999861717224121e-01,2.391000032424926758e+00,1.789999961853027344e+00,1.065353216000000000e+09
-1.059000015258789062e+00,2.384000062942504883e+00,1.840000033378601074e+00,1.065353216000000000e+09
-1.207000017166137695e+00,2.388000011444091797e+00,1.904000043869018555e+00,1.065353216000000000e+09
-8.629999756813049316e-01,2.397000074386596680e+00,1.761000037193298340e+00,1.065353216000000000e+09
-9.929999709129333496e-01,2.397000074386596680e+00,1.812000036239624023e+00,1.065353216000000000e+09
-1.128000020980834961e+00,2.390000104904174805e+00,1.866999983787536621e+00,1.065353216000000000e+09
-4.133999824523925781e+00,7.721000194549560547e+00,6.255000114440917969e+00,1.065353216000000000e+09
-9.250000119209289551e-01,2.398000001907348633e+00,1.774000048637390137e+00,1.065353216000000000e+09
-1.050999999046325684e+00,2.387000083923339844e+00,1.822000026702880859e+00,1.065353216000000000e+09
-1.195000052452087402e+00,2.390000104904174805e+00,1.891999959945678711e+00,1.065353216000000000e+09
-1.373000025749206543e+00,2.427999973297119141e+00,1.998999953269958496e+00,1.065353216000000000e+09
-9.860000014305114746e-01,2.395999908447265625e+00,1.784999966621398926e+00,1.065353216000000000e+09
-1.118999958038330078e+00,2.391000032424926758e+00,1.845000028610229492e+00,1.065353216000000000e+09
-4.127999782562255859e+00,7.801000118255615234e+00,6.258999824523925781e+00,1.065353216000000000e+09
-1.375000000000000000e+00,2.303999900817871094e+00,1.930999994277954102e+00,1.065353216000000000e+09
-1.047000050544738770e+00,2.392999887466430664e+00,1.797999978065490723e+00,1.065353216000000000e+09
-1.187000036239624023e+00,2.395999908447265625e+00,1.868999958038330078e+00,1.065353216000000000e+09
-1.386999964714050293e+00,2.483000040054321289e+00,2.020999908447265625e+00,1.065353216000000000e+09
-1.491999983787536621e+00,2.371999979019165039e+00,2.023000001907348633e+00,1.065353216000000000e+09
-1.111999988555908203e+00,2.394000053405761719e+00,1.815000057220458984e+00,1.065353216000000000e+09
-4.138999938964843750e+00,7.896999835968017578e+00,6.235000133514404297e+00,1.065353216000000000e+09
-1.361999988555908203e+00,2.312000036239624023e+00,1.909999966621398926e+00,1.065353216000000000e+09
-1.666000008583068848e+00,2.517999887466430664e+00,2.187000036239624023e+00,1.065353216000000000e+09
-1.177999973297119141e+00,2.392999887466430664e+00,1.830999970436096191e+00,1.065353216000000000e+09
-1.376000046730041504e+00,2.486000061035156250e+00,1.988000035285949707e+00,1.065353216000000000e+09
-1.445000052452087402e+00,2.328999996185302734e+00,1.955000042915344238e+00,1.065353216000000000e+09
-1.758000016212463379e+00,2.526999950408935547e+00,2.239000082015991211e+00,1.065353216000000000e+09
-4.189000129699707031e+00,8.048999786376953125e+00,6.222000122070312500e+00,1.065353216000000000e+09
-1.348999977111816406e+00,2.313999891281127930e+00,1.873999953269958496e+00,1.065353216000000000e+09
-1.636000037193298340e+00,2.506999969482421875e+00,2.140000104904174805e+00,1.065353216000000000e+09
-4.915999889373779297e+00,6.723000049591064453e+00,6.079999923706054688e+00,1.065353216000000000e+09
-1.371999979019165039e+00,2.497999906539916992e+00,1.952000021934509277e+00,1.065353216000000000e+09
-1.421000003814697266e+00,2.312999963760375977e+00,1.901000022888183594e+00,1.065353216000000000e+09
-1.754999995231628418e+00,2.559000015258789062e+00,2.221999883651733398e+00,1.065353216000000000e+09
-2.359999895095825195e+00,3.075000047683715820e+00,2.839999914169311523e+00,1.065353216000000000e+09
-1.340999960899353027e+00,2.315000057220458984e+00,1.830999970436096191e+00,1.065353216000000000e+09
-1.590999960899353027e+00,2.463000059127807617e+00,2.053999900817871094e+00,1.065353216000000000e+09
-4.938000202178955078e+00,6.857999801635742188e+00,6.065000057220458984e+00,1.065353216000000000e+09
-2.384999990463256836e+00,2.963999986648559570e+00,2.796999931335449219e+00,1.065353216000000000e+09
-1.411999940872192383e+00,2.315999984741210938e+00,1.853999972343444824e+00,1.065353216000000000e+09
-1.733000040054321289e+00,2.555000066757202148e+00,2.163000106811523438e+00,1.065353216000000000e+09
-2.345000028610229492e+00,3.105000019073486328e+00,2.798000097274780273e+00,1.065353216000000000e+09
0.000000000000000000e+00,0.000000000000000000e+00,0.000000000000000000e+00,1.065353216000000000e+09
-1.587000012397766113e+00,2.474999904632568359e+00,2.006999969482421875e+00,1.065353216000000000e+09
-4.984000205993652344e+00,6.999000072479248047e+00,6.022999763488769531e+00,1.065353216000000000e+09
-2.364000082015991211e+00,2.986000061035156250e+00,2.743000030517578125e+00,1.065353216000000000e+09
-2.447000026702880859e+00,2.767999887466430664e+00,2.736000061035156250e+00,1.065353216000000000e+09
-1.718999981880187988e+00,2.552000045776367188e+00,2.098000049591064453e+00,1.065353216000000000e+09
-5.138999938964843750e+00,6.881000041961669922e+00,6.022999763488769531e+00,1.065353216000000000e+09
-5.304999828338623047e+00,6.394999980926513672e+00,5.999000072479248047e+00,1.065353216000000000e+09
-2.487999916076660156e+00,2.687000036239624023e+00,2.720999956130981445e+00,1.065353216000000000e+09
-5.081999778747558594e+00,7.185999870300292969e+00,5.995999813079833984e+00,1.065353216000000000e+09
-2.362999916076660156e+00,3.019000053405761719e+00,2.690000057220458984e+00,1.065353216000000000e+09
-2.418999910354614258e+00,2.783999919891357422e+00,2.667999982833862305e+00,1.065353216000000000e+09
-2.638999938964843750e+00,2.720999956130981445e+00,2.828000068664550781e+00,1.065353216000000000e+09
-5.230000019073486328e+00,7.050000190734863281e+00,5.973999977111816406e+00,1.065353216000000000e+09
-5.381000041961669922e+00,6.560999870300292969e+00,5.956999778747558594e+00,1.065353216000000000e+09
-2.453000068664550781e+00,2.697000026702880859e+00,2.641999959945678711e+00,1.065353216000000000e+09
-5.625999927520751953e+00,5.541999816894531250e+00,5.912000179290771484e+00,1.065353216000000000e+09
-2.346999883651733398e+00,3.017999887466430664e+00,2.598999977111816406e+00,1.065353216000000000e+09
-5.484000205993652344e+00,6.385000228881835938e+00,5.912000179290771484e+00,1.065353216000000000e+09
-2.594000101089477539e+00,2.723000049591064453e+00,2.732000112533569336e+00,1.065353216000000000e+09
-5.710999965667724609e+00,5.373000144958496094e+00,5.889999866485595703e+00,1.065353216000000000e+09
0.000000000000000000e+00,0.000000000000000000e+00,0.000000000000000000e+00,1.065353216000000000e+09
-2.427000045776367188e+00,2.700000047683715820e+00,2.551000118255615234e+00,1.065353216000000000e+09
-5.703999996185302734e+00,5.723000049591064453e+00,5.881000041961669922e+00,1.065353216000000000e+09
-3.986999988555908203e+00,3.582000017166137695e+00,4.040999889373779297e+00,1.065353216000000000e+09
0.000000000000000000e+00,0.000000000000000000e+00,0.000000000000000000e+00,1.065353216000000000e+09
-2.568000078201293945e+00,2.727999925613403320e+00,2.634000062942504883e+00,1.065353216000000000e+09
-5.793000221252441406e+00,5.553999900817871094e+00,5.853000164031982422e+00,1.065353216000000000e+09
-4.046000003814697266e+00,3.470999956130981445e+00,4.033999919891357422e+00,1.065353216000000000e+09
-2.414000034332275391e+00,2.700999975204467773e+00,2.456000089645385742e+00,1.065353216000000000e+09
-5.818999767303466797e+00,5.907000064849853516e+00,5.834000110626220703e+00,1.065353216000000000e+09
-5.907999992370605469e+00,5.412000179290771484e+00,5.854000091552734375e+00,1.065353216000000000e+09
-3.726000070571899414e+00,3.051000118255615234e+00,3.657000064849853516e+00,1.065353216000000000e+09
-2.568000078201293945e+00,2.743999958038330078e+00,2.546999931335449219e+00,1.065353216000000000e+09
-5.916999816894531250e+00,5.738999843597412109e+00,5.802999973297119141e+00,1.065353216000000000e+09
-4.151999950408935547e+00,3.631999969482421875e+00,4.039000034332275391e+00,1.065353216000000000e+09
-2.426000118255615234e+00,1.896000027656555176e+00,2.345999956130981445e+00,1.065353216000000000e+09
-5.982999801635742188e+00,6.107999801635742188e+00,5.788000106811523438e+00,1.065353216000000000e+09
-6.028999805450439453e+00,5.587999820709228516e+00,5.790999889373779297e+00,1.065353216000000000e+09
-3.677999973297119141e+00,3.072999954223632812e+00,3.516999959945678711e+00,1.065353216000000000e+09
-2.463999986648559570e+00,1.835999965667724609e+00,2.349999904632568359e+00,1.065353216000000000e+09
-6.090000152587890625e+00,5.938000202178955078e+00,5.754000186920166016e+00,1.065353216000000000e+09
0.000000000000000000e+00,0.000000000000000000e+00,0.000000000000000000e+00,1.065353216000000000e+09
0.000000000000000000e+00,0.000000000000000000e+00,0.000000000000000000e+00,1.065353216000000000e+09
0.000000000000000000e+00,0.000000000000000000e+00,0.000000000000000000e+00,1.065353216000000000e+09
0.000000000000000000e+00,0.000000000000000000e+00,0.000000000000000000e+00,1.065353216000000000e+09
-5.709999799728393555e-01,4.819999933242797852e-01,5.270000100135803223e-01,1.065353216000000000e+09
-5.839999914169311523e-01,4.449999928474426270e-01,5.410000085830688477e-01,1.065353216000000000e+09
-5.960000157356262207e-01,4.029999971389770508e-01,5.540000200271606445e-01,1.065353216000000000e+09
-5.789999961853027344e-01,5.139999985694885254e-01,5.230000019073486328e-01,1.065353216000000000e+09
-5.809999704360961914e-01,4.690000116825103760e-01,5.270000100135803223e-01,1.065353216000000000e+09
-5.780000090599060059e-01,4.199999868869781494e-01,5.270000100135803223e-01,1.065353216000000000e+09
-5.849999785423278809e-01,3.770000040531158447e-01,5.379999876022338867e-01,1.065353216000000000e+09
-5.749999880790710449e-01,4.880000054836273193e-01,5.090000033378601074e-01,1.065353216000000000e+09
-5.770000219345092773e-01,4.440000057220458984e-01,5.139999985694885254e-01,1.065353216000000000e+09
-5.770000219345092773e-01,3.989999890327453613e-01,5.189999938011169434e-01,1.065353216000000000e+09
-5.839999914169311523e-01,3.580000102519989014e-01,5.310000181198120117e-01,1.065353216000000000e+09
-5.720000267028808594e-01,4.629999995231628418e-01,4.970000088214874268e-01,1.065353216000000000e+09
-5.740000009536743164e-01,4.210000038146972656e-01,5.030000209808349609e-01,1.065353216000000000e+09
-5.799999833106994629e-01,3.819999992847442627e-01,5.149999856948852539e-01,1.065353216000000000e+09
-5.830000042915344238e-01,3.389999866485595703e-01,5.239999890327453613e-01,1.065353216000000000e+09
-5.669999718666076660e-01,4.379999935626983643e-01,4.830000102519989014e-01,1.065353216000000000e+09
-5.749999880790710449e-01,4.020000100135803223e-01,4.970000088214874268e-01,1.065353216000000000e+09
-5.799999833106994629e-01,3.630000054836273193e-01,5.080000162124633789e-01,1.065353216000000000e+09
-5.849999785423278809e-01,3.230000138282775879e-01,5.220000147819519043e-01,1.065353216000000000e+09
-5.649999976158142090e-01,4.160000085830688477e-01,4.729999899864196777e-01,1.065353216000000000e+09
-5.720000267028808594e-01,3.810000121593475342e-01,4.869999885559082031e-01,1.065353216000000000e+09
-5.759999752044677734e-01,3.429999947547912598e-01,4.990000128746032715e-01,1.065353216000000000e+09
-5.789999961853027344e-01,3.019999861717224121e-01,5.109999775886535645e-01,1.065353216000000000e+09
-5.669999718666076660e-01,3.970000147819519043e-01,4.670000076293945312e-01,1.065353216000000000e+09
-5.730000138282775879e-01,3.630000054836273193e-01,4.799999892711639404e-01,1.065353216000000000e+09
-5.789999961853027344e-01,3.269999921321868896e-01,4.959999918937683105e-01,1.065353216000000000e+09
-5.820000171661376953e-01,2.879999876022338867e-01,5.099999904632568359e-01,1.065353216000000000e+09
-5.680000185966491699e-01,3.790000081062316895e-01,4.600000083446502686e-01,1.065353216000000000e+09
-5.699999928474426270e-01,3.429999947547912598e-01,4.709999859333038330e-01,1.065353216000000000e+09
-5.730000138282775879e-01,3.070000112056732178e-01,4.860000014305114746e-01,1.065353216000000000e+09
-5.839999914169311523e-01,2.720000147819519043e-01,5.080000162124633789e-01,1.065353216000000000e+09
-5.680000185966491699e-01,3.600000143051147461e-01,4.519999921321868896e-01,1.065353216000000000e+09
-5.749999880790710449e-01,3.280000090599060059e-01,4.699999988079071045e-01,1.065353216000000000e+09
-5.770000219345092773e-01,2.919999957084655762e-01,4.839999973773956299e-01,1.065353216000000000e+09
-5.820000171661376953e-01,2.560000121593475342e-01,5.030000209808349609e-01,1.065353216000000000e+09
-5.619999766349792480e-01,3.379999995231628418e-01,4.420000016689300537e-01,1.065353216000000000e+09
-5.709999799728393555e-01,3.089999854564666748e-01,4.609999954700469971e-01,1.065353216000000000e+09
-5.770000219345092773e-01,2.759999930858612061e-01,4.799999892711639404e-01,1.065353216000000000e+09
-5.839999914169311523e-01,2.409999966621398926e-01,5.009999871253967285e-01,1.065353216000000000e+09
-5.619999766349792480e-01,3.199999928474426270e-01,4.350000023841857910e-01,1.065353216000000000e+09
-5.669999718666076660e-01,2.899999916553497314e-01,4.530000090599060059e-01,1.065353216000000000e+09
-5.740000009536743164e-01,2.590000033378601074e-01,4.740000069141387939e-01,1.065353216000000000e+09
-5.789999961853027344e-01,2.240000069141387939e-01,4.939999878406524658e-01,1.065353216000000000e+09
-5.609999895095825195e-01,3.030000030994415283e-01,4.289999902248382568e-01,1.065353216000000000e+09
-5.669999718666076660e-01,2.739999890327453613e-01,4.480000138282775879e-01,1.065353216000000000e+09
-5.690000057220458984e-01,2.409999966621398926e-01,4.659999907016754150e-01,1.065353216000000000e+09
-5.669999718666076660e-01,2.049999982118606567e-01,4.819999933242797852e-01,1.065353216000000000e+09
-5.590000152587890625e-01,2.849999964237213135e-01,4.219999909400939941e-01,1.065353216000000000e+09
-5.649999976158142090e-01,2.569999992847442627e-01,4.420000016689300537e-01,1.065353216000000000e+09
-5.649999976158142090e-01,2.240000069141387939e-01,4.589999914169311523e-01,1.065353216000000000e+09
-5.730000138282775879e-01,1.930000036954879761e-01,4.839999973773956299e-01,1.065353216000000000e+09
-5.509999990463256836e-01,2.649999856948852539e-01,4.110000133514404297e-01,1.065353216000000000e+09
-5.569999814033508301e-01,2.380000054836273193e-01,4.320000112056732178e-01,1.065353216000000000e+09
-5.630000233650207520e-01,2.090000063180923462e-01,4.539999961853027344e-01,1.065353216000000000e+09
-5.730000138282775879e-01,1.790000051259994507e-01,4.819999933242797852e-01,1.065353216000000000e+09
-5.519999861717224121e-01,2.500000000000000000e-01,4.079999923706054688e-01,1.065353216000000000e+09
-5.529999732971191406e-01,2.210000008344650269e-01,4.250000119209289551e-01,1.065353216000000000e+09
-5.669999718666076660e-01,1.959999948740005493e-01,4.550000131130218506e-01,1.065353216000000000e+09
-5.830000042915344238e-01,1.679999977350234985e-01,4.889999926090240479e-01,1.065353216000000000e+09
-5.490000247955322266e-01,2.329999953508377075e-01,4.009999930858612061e-01,1.065353216000000000e+09
-5.519999861717224121e-01,2.060000002384185791e-01,4.210000038146972656e-01,1.065353216000000000e+09
-5.659999847412109375e-01,1.819999963045120239e-01,4.510000050067901611e-01,1.065353216000000000e+09
-5.740000009536743164e-01,1.509999930858612061e-01,4.799999892711639404e-01,1.065353216000000000e+09
-5.450000166893005371e-01,2.160000056028366089e-01,3.939999938011169434e-01,1.065353216000000000e+09
-5.559999942779541016e-01,1.930000036954879761e-01,4.210000038146972656e-01,1.065353216000000000e+09
-5.569999814033508301e-01,1.650000065565109253e-01,4.420000016689300537e-01,1.065353216000000000e+09
-5.759999752044677734e-01,1.379999965429306030e-01,4.810000061988830566e-01,1.065353216000000000e+09
-5.460000038146972656e-01,2.020000070333480835e-01,3.919999897480010986e-01,1.065353216000000000e+09
-5.500000119209289551e-01,1.770000010728836060e-01,4.129999876022338867e-01,1.065353216000000000e+09
-5.659999847412109375e-01,1.539999991655349731e-01,4.469999969005584717e-01,1.065353216000000000e+09
-5.789999961853027344e-01,1.260000020265579224e-01,4.819999933242797852e-01,1.065353216000000000e+09
-5.529999732971191406e-01,1.899999976158142090e-01,3.939999938011169434e-01,1.065353216000000000e+09
-5.500000119209289551e-01,1.630000025033950806e-01,4.110000133514404297e-01,1.065353216000000000e+09
-5.640000104904174805e-01,1.400000005960464478e-01,4.440000057220458984e-01,1.065353216000000000e+09
-5.749999880790710449e-01,1.110000014305114746e-01,4.769999980926513672e-01,1.065353216000000000e+09
-5.559999942779541016e-01,1.759999990463256836e-01,3.930000066757202148e-01,1.065353216000000000e+09
-5.469999909400939941e-01,1.490000039339065552e-01,4.059999883174896240e-01,1.065353216000000000e+09
-5.600000023841857910e-01,1.250000000000000000e-01,4.390000104904174805e-01,1.065353216000000000e+09
-5.720000267028808594e-01,9.799999743700027466e-02,4.749999940395355225e-01,1.065353216000000000e+09
-5.469999909400939941e-01,1.599999964237213135e-01,3.840000033378601074e-01,1.065353216000000000e+09
-5.500000119209289551e-01,1.360000073909759521e-01,4.070000052452087402e-01,1.065353216000000000e+09
-5.640000104904174805e-01,1.129999980330467224e-01,4.410000145435333252e-01,1.065353216000000000e+09
-5.820000171661376953e-01,8.600000292062759399e-02,4.830000102519989014e-01,1.065353216000000000e+09
-5.500000119209289551e-01,1.459999978542327881e-01,3.829999864101409912e-01,1.065353216000000000e+09
-5.490000247955322266e-01,1.220000013709068298e-01,4.050000011920928955e-01,1.065353216000000000e+09
-5.619999766349792480e-01,9.899999946355819702e-02,4.379999935626983643e-01,1.065353216000000000e+09
-5.730000138282775879e-01,7.199999690055847168e-02,4.749999940395355225e-01,1.065353216000000000e+09
-5.479999780654907227e-01,1.319999992847442627e-01,3.799999952316284180e-01,1.065353216000000000e+09
-5.519999861717224121e-01,1.099999994039535522e-01,4.050000011920928955e-01,1.065353216000000000e+09
-5.600000023841857910e-01,8.600000292062759399e-02,4.359999895095825195e-01,1.065353216000000000e+09
-5.730000138282775879e-01,5.900000035762786865e-02,4.749999940395355225e-01,1.065353216000000000e+09
-5.509999990463256836e-01,1.190000027418136597e-01,3.799999952316284180e-01,1.065353216000000000e+09
-5.519999861717224121e-01,9.700000286102294922e-02,4.040000140666961670e-01,1.065353216000000000e+09
-5.619999766349792480e-01,7.400000095367431641e-02,4.370000064373016357e-01,1.065353216000000000e+09
-5.709999799728393555e-01,4.699999839067459106e-02,4.740000069141387939e-01,1.065353216000000000e+09
-5.440000295639038086e-01,1.040000021457672119e-01,3.740000128746032715e-01,1.065353216000000000e+09
-5.550000071525573730e-01,8.399999886751174927e-02,4.050000011920928955e-01,1.065353216000000000e+09
-5.619999766349792480e-01,6.100000068545341492e-02,4.370000064373016357e-01,1.065353216000000000e+09
-5.699999928474426270e-01,3.400000184774398804e-02,4.740000069141387939e-01,1.065353216000000000e+09
-5.490000247955322266e-01,9.200000017881393433e-02,3.750000000000000000e-01,1.065353216000000000e+09
-5.529999732971191406e-01,7.100000232458114624e-02,4.029999971389770508e-01,1.065353216000000000e+09
-5.609999895095825195e-01,4.800000041723251343e-02,4.359999895095825195e-01,1.065353216000000000e+09
-5.740000009536743164e-01,2.199999988079071045e-02,4.769999980926513672e-01,1.065353216000000000e+09
-5.540000200271606445e-01,7.900000363588333130e-02,3.779999911785125732e-01,1.065353216000000000e+09
-5.559999942779541016e-01,5.799999833106994629e-02,4.050000011920928955e-01,1.065353216000000000e+09
-5.649999976158142090e-01,3.500000014901161194e-02,4.390000104904174805e-01,1.065353216000000000e+09
-5.730000138282775879e-01,8.999999612569808960e-03,4.779999852180480957e-01,1.065353216000000000e+09
-5.519999861717224121e-01,6.499999761581420898e-02,3.750000000000000000e-01,1.065353216000000000e+09
-5.509999990463256836e-01,4.500000178813934326e-02,4.000000059604644775e-01,1.065353216000000000e+09
-5.619999766349792480e-01,2.300000004470348358e-02,4.370000064373016357e-01,1.065353216000000000e+09
-5.770000219345092773e-01,-2.000000094994902611e-03,4.819999933242797852e-01,1.065353216000000000e+09
0.000000000000000000e+00,0.000000000000000000e+00,0.000000000000000000e+00,1.065353216000000000e+09
-5.559999942779541016e-01,3.200000151991844177e-02,4.040000140666961670e-01,1.065353216000000000e+09
-5.649999976158142090e-01,9.999999776482582092e-03,4.399999976158142090e-01,1.065353216000000000e+09
-5.809999704360961914e-01,-1.499999966472387314e-02,4.869999885559082031e-01,1.065353216000000000e+09
0.000000000000000000e+00,0.000000000000000000e+00,0.000000000000000000e+00,1.065353216000000000e+09
-5.509999990463256836e-01,1.899999938905239105e-02,4.000000059604644775e-01,1.065353216000000000e+09
-5.709999799728393555e-01,-2.000000094994902611e-03,4.449999928474426270e-01,1.065353216000000000e+09
-5.789999961853027344e-01,-2.800000086426734924e-02,4.869999885559082031e-01,1.065353216000000000e+09
-5.469999909400939941e-01,2.600000053644180298e-02,3.709999918937683105e-01,1.065353216000000000e+09
-5.550000071525573730e-01,6.000000052154064178e-03,4.040000140666961670e-01,1.065353216000000000e+09
-5.619999766349792480e-01,-1.400000043213367462e-02,4.390000104904174805e-01,1.065353216000000000e+09
-5.860000252723693848e-01,-4.100000113248825073e-02,4.939999878406524658e-01,1.065353216000000000e+09
-5.519999861717224121e-01,1.300000026822090149e-02,3.740000128746032715e-01,1.065353216000000000e+09
-5.569999814033508301e-01,-4.999999888241291046e-03,4.059999883174896240e-01,1.065353216000000000e+09
-5.640000104904174805e-01,-2.700000070035457611e-02,4.420000016689300537e-01,1.065353216000000000e+09
-5.830000042915344238e-01,-5.299999937415122986e-02,4.939999878406524658e-01,1.065353216000000000e+09
-5.500000119209289551e-01,0.000000000000000000e+00,3.729999959468841553e-01,1.065353216000000000e+09
0.000000000000000000e+00,0.000000000000000000e+00,0.000000000000000000e+00,1.065353216000000000e+09
-5.600000023841857910e-01,-3.900000080466270447e-02,4.399999976158142090e-01,1.065353216000000000e+09
-5.849999785423278809e-01,-6.599999964237213135e-02,4.979999959468841553e-01,1.065353216000000000e+09
-5.509999990463256836e-01,-1.300000026822090149e-02,3.740000128746032715e-01,1.065353216000000000e+09
-5.550000071525573730e-01,-3.099999949336051941e-02,4.059999883174896240e-01,1.065353216000000000e+09
-5.659999847412109375e-01,-5.200000107288360596e-02,4.460000097751617432e-01,1.065353216000000000e+09
-5.860000252723693848e-01,-7.900000363588333130e-02,5.000000000000000000e-01,1.065353216000000000e+09
-5.519999861717224121e-01,-2.600000053644180298e-02,3.759999871253967285e-01,1.065353216000000000e+09
-5.559999942779541016e-01,-4.399999976158142090e-02,4.079999923706054688e-01,1.065353216000000000e+09
-5.740000009536743164e-01,-6.599999964237213135e-02,4.550000131130218506e-01,1.065353216000000000e+09
-5.870000123977661133e-01,-9.200000017881393433e-02,5.040000081062316895e-01,1.065353216000000000e+09
-5.509999990463256836e-01,-3.900000080466270447e-02,3.759999871253967285e-01,1.065353216000000000e+09
-5.559999942779541016e-01,-5.700000002980232239e-02,4.090000092983245850e-01,1.065353216000000000e+09
-5.759999752044677734e-01,-7.900000363588333130e-02,4.580000042915344238e-01,1.065353216000000000e+09
-5.879999995231628418e-01,-1.049999967217445374e-01,5.080000162124633789e-01,1.065353216000000000e+09
-5.529999732971191406e-01,-5.200000107288360596e-02,3.790000081062316895e-01,1.065353216000000000e+09
0.000000000000000000e+00,0.000000000000000000e+00,0.000000000000000000e+00,1.065353216000000000e+09
-5.630000233650207520e-01,-9.000000357627868652e-02,4.499999880790710449e-01,1.065353216000000000e+09
-5.870000123977661133e-01,-1.180000007152557373e-01,5.099999904632568359e-01,1.065353216000000000e+09
-5.550000071525573730e-01,-6.599999964237213135e-02,3.810000121593475342e-01,1.065353216000000000e+09
-5.609999895095825195e-01,-8.399999886751174927e-02,4.160000085830688477e-01,1.065353216000000000e+09
-5.690000057220458984e-01,-1.049999967217445374e-01,4.580000042915344238e-01,1.065353216000000000e+09
-5.809999704360961914e-01,-1.299999952316284180e-01,5.090000033378601074e-01,1.065353216000000000e+09
-5.509999990463256836e-01,-7.900000363588333130e-02,3.799999952316284180e-01,1.065353216000000000e+09
-5.529999732971191406e-01,-9.600000083446502686e-02,4.129999876022338867e-01,1.065353216000000000e+09
-5.809999704360961914e-01,-1.199999973177909851e-01,4.699999988079071045e-01,1.065353216000000000e+09
-5.799999833106994629e-01,-1.430000066757202148e-01,5.109999775886535645e-01,1.065353216000000000e+09
-5.540000200271606445e-01,-9.300000220537185669e-02,3.840000033378601074e-01,1.065353216000000000e+09
-5.559999942779541016e-01,-1.099999994039535522e-01,4.169999957084655762e-01,1.065353216000000000e+09
-5.830000042915344238e-01,-1.340000033378601074e-01,4.740000069141387939e-01,1.065353216000000000e+09
-5.870000123977661133e-01,-1.580000072717666626e-01,5.210000276565551758e-01,1.065353216000000000e+09
-5.569999814033508301e-01,-1.070000007748603821e-01,3.880000114440917969e-01,1.065353216000000000e+09
-5.659999847412109375e-01,-1.250000000000000000e-01,4.280000030994415283e-01,1.065353216000000000e+09
-5.849999785423278809e-01,-1.490000039339065552e-01,4.799999892711639404e-01,1.065353216000000000e+09
-5.910000205039978027e-01,-1.720000058412551880e-01,5.279999971389770508e-01,1.065353216000000000e+09
-5.540000200271606445e-01,-1.209999993443489075e-01,3.889999985694885254e-01,1.065353216000000000e+09
-5.699999928474426270e-01,-1.400000005960464478e-01,4.339999854564666748e-01,1.065353216000000000e+09
-5.839999914169311523e-01,-1.620000004768371582e-01,4.830000102519989014e-01,1.065353216000000000e+09
-5.899999737739562988e-01,-1.860000044107437134e-01,5.320000052452087402e-01,1.065353216000000000e+09
-5.529999732971191406e-01,-1.340000033378601074e-01,3.910000026226043701e-01,1.065353216000000000e+09
-5.759999752044677734e-01,-1.560000032186508179e-01,4.420000016689300537e-01,1.065353216000000000e+09
-5.830000042915344238e-01,-1.759999990463256836e-01,4.860000014305114746e-01,1.065353216000000000e+09
-5.910000205039978027e-01,-2.000000029802322388e-01,5.370000004768371582e-01,1.065353216000000000e+09
-5.529999732971191406e-01,-1.480000019073486328e-01,3.939999938011169434e-01,1.065353216000000000e+09
-5.759999752044677734e-01,-1.700000017881393433e-01,4.449999928474426270e-01,1.065353216000000000e+09
-5.839999914169311523e-01,-1.909999996423721313e-01,4.909999966621398926e-01,1.065353216000000000e+09
-5.920000076293945312e-01,-2.150000035762786865e-01,5.429999828338623047e-01,1.065353216000000000e+09
-5.590000152587890625e-01,-1.640000045299530029e-01,4.020000100135803223e-01,1.065353216000000000e+09
-5.770000219345092773e-01,-1.850000023841857910e-01,4.499999880790710449e-01,1.065353216000000000e+09
-5.889999866485595703e-01,-2.070000022649765015e-01,4.990000128746032715e-01,1.065353216000000000e+09
-5.960000157356262207e-01,-2.310000061988830566e-01,5.529999732971191406e-01,1.065353216000000000e+09
-5.630000233650207520e-01,-1.809999942779541016e-01,4.090000092983245850e-01,1.065353216000000000e+09
-5.799999833106994629e-01,-2.010000050067901611e-01,4.569999873638153076e-01,1.065353216000000000e+09
-5.929999947547912598e-01,-2.230000048875808716e-01,5.080000162124633789e-01,1.065353216000000000e+09
-4.361000061035156250e+00,-1.796000003814697266e+00,4.080999851226806641e+00,1.065353216000000000e+09
-5.649999976158142090e-01,-1.959999948740005493e-01,4.140000045299530029e-01,1.065353216000000000e+09
-5.820000171661376953e-01,-2.169999927282333374e-01,4.629999995231628418e-01,1.065353216000000000e+09
-5.920000076293945312e-01,-2.380000054836273193e-01,5.120000243186950684e-01,1.065353216000000000e+09
-4.323999881744384766e+00,-1.889000058174133301e+00,4.089000225067138672e+00,1.065353216000000000e+09
-5.540000200271606445e-01,-2.070000022649765015e-01,4.099999964237213135e-01,1.065353216000000000e+09
-5.830000042915344238e-01,-2.329999953508377075e-01,4.679999947547912598e-01,1.065353216000000000e+09
-5.950000286102294922e-01,-2.549999952316284180e-01,5.199999809265136719e-01,1.065353216000000000e+09
0.000000000000000000e+00,0.000000000000000000e+00,0.000000000000000000e+00,1.065353216000000000e+09
-5.529999732971191406e-01,-2.220000028610229492e-01,4.140000045299530029e-01,1.065353216000000000e+09
-5.839999914169311523e-01,-2.489999979734420776e-01,4.749999940395355225e-01,1.065353216000000000e+09
-5.970000028610229492e-01,-2.709999978542327881e-01,5.270000100135803223e-01,1.065353216000000000e+09
0.000000000000000000e+00,0.000000000000000000e+00,0.000000000000000000e+00,1.065353216000000000e+09
-5.590000152587890625e-01,-2.399999946355819702e-01,4.230000078678131104e-01,1.065353216000000000e+09
-5.839999914169311523e-01,-2.649999856948852539e-01,4.799999892711639404e-01,1.065353216000000000e+09
-5.929999947547912598e-01,-2.849999964237213135e-01,5.299999713897705078e-01,1.065353216000000000e+09
0.000000000000000000e+00,0.000000000000000000e+00,0.000000000000000000e+00,1.065353216000000000e+09
-5.759999752044677734e-01,-2.639999985694885254e-01,4.420000016689300537e-01,1.065353216000000000e+09
-5.920000076293945312e-01,-2.849999964237213135e-01,4.930000007152557373e-01,1.065353216000000000e+09
-5.939999818801879883e-01,-3.030000030994415283e-01,5.379999876022338867e-01,1.065353216000000000e+09
-3.490999937057495117e+00,-1.889999985694885254e+00,3.457000017166137695e+00,1.065353216000000000e+09
-5.640000104904174805e-01,-2.750000059604644775e-01,4.379999935626983643e-01,1.065353216000000000e+09
-5.870000123977661133e-01,-3.000000119209289551e-01,4.959999918937683105e-01,1.065353216000000000e+09
-6.010000109672546387e-01,-3.230000138282775879e-01,5.509999990463256836e-01,1.065353216000000000e+09
-3.306999921798706055e+00,-1.881999969482421875e+00,3.316999912261962891e+00,1.065353216000000000e+09
-5.709999799728393555e-01,-2.960000038146972656e-01,4.510000050067901611e-01,1.065353216000000000e+09
-5.899999737739562988e-01,-3.190000057220458984e-01,5.049999952316284180e-01,1.065353216000000000e+09
0.000000000000000000e+00,0.000000000000000000e+00,0.000000000000000000e+00,1.065353216000000000e+09
-3.227999925613403320e+00,-1.927999973297119141e+00,3.282000064849853516e+00,1.065353216000000000e+09
-5.690000057220458984e-01,-3.129999935626983643e-01,4.560000002384185791e-01,1.065353216000000000e+09
-5.950000286102294922e-01,-3.400000035762786865e-01,5.170000195503234863e-01,1.065353216000000000e+09
-2.661000013351440430e+00,-1.585999965667724609e+00,2.510999917984008789e+00,1.065353216000000000e+09
-2.487999916076660156e+00,-1.557000041007995605e+00,2.563999891281127930e+00,1.065353216000000000e+09
-5.699999928474426270e-01,-3.310000002384185791e-01,4.639999866485595703e-01,1.065353216000000000e+09
-5.910000205039978027e-01,-3.560000061988830566e-01,5.220000147819519043e-01,1.065353216000000000e+09
-2.586999893188476562e+00,-1.621000051498413086e+00,2.477999925613403320e+00,1.065353216000000000e+09
-2.444999933242797852e+00,-1.603000044822692871e+00,2.555999994277954102e+00,1.065353216000000000e+09
-5.730000138282775879e-01,-3.519999980926513672e-01,4.740000069141387939e-01,1.065353216000000000e+09
-5.889999866485595703e-01,-3.729999959468841553e-01,5.279999971389770508e-01,1.065353216000000000e+09
-2.427000045776367188e+00,-1.595999956130981445e+00,2.361999988555908203e+00,1.065353216000000000e+09
-2.226000070571899414e+00,-1.527999997138977051e+00,2.362999916076660156e+00,1.065353216000000000e+09
-5.770000219345092773e-01,-3.740000128746032715e-01,4.860000014305114746e-01,1.065353216000000000e+09
-6.029999852180480957e-01,-4.020000100135803223e-01,5.490000247955322266e-01,1.065353216000000000e+09
-2.394000053405761719e+00,-1.651000022888183594e+00,2.367000102996826172e+00,1.065353216000000000e+09
-2.201999902725219727e+00,-1.578999996185302734e+00,2.372999906539916992e+00,1.065353216000000000e+09
-5.820000171661376953e-01,-3.970000147819519043e-01,5.000000000000000000e-01,1.065353216000000000e+09
-3.098000049591064453e+00,-2.173000097274780273e+00,2.875000000000000000e+00,1.065353216000000000e+09
-2.358000040054321289e+00,-1.705000042915344238e+00,2.371999979019165039e+00,1.065353216000000000e+09
-2.197000026702880859e+00,-1.646999955177307129e+00,2.407000064849853516e+00,1.065353216000000000e+09
-5.849999785423278809e-01,-4.199999868869781494e-01,5.109999775886535645e-01,1.065353216000000000e+09
-2.950999975204467773e+00,-2.173000097274780273e+00,2.789999961853027344e+00,1.065353216000000000e+09
-2.308000087738037109e+00,-1.746999979019165039e+00,2.361999988555908203e+00,1.065353216000000000e+09
-2.187000036239624023e+00,-1.712000012397766113e+00,2.436000108718872070e+00,1.065353216000000000e+09
-5.809999704360961914e-01,-4.390000104904174805e-01,5.189999938011169434e-01,1.065353216000000000e+09
-2.857000112533569336e+00,-2.207999944686889648e+00,2.753999948501586914e+00,1.065353216000000000e+09
-2.236999988555908203e+00,-1.771999955177307129e+00,2.332000017166137695e+00,1.065353216000000000e+09
-2.158999919891357422e+00,-1.764000058174133301e+00,2.447000026702880859e+00,1.065353216000000000e+09
-5.820000171661376953e-01,-4.620000123977661133e-01,5.310000181198120117e-01,1.065353216000000000e+09
-2.826999902725219727e+00,-2.289999961853027344e+00,2.779000043869018555e+00,1.065353216000000000e+09
-2.210000038146972656e+00,-1.832000017166137695e+00,2.348000049591064453e+00,1.065353216000000000e+09
-2.127000093460083008e+00,-1.814000010490417480e+00,2.453999996185302734e+00,1.065353216000000000e+09
-2.763000011444091797e+00,-2.303999900817871094e+00,2.575000047683715820e+00,1.065353216000000000e+09
-2.851000070571899414e+00,-2.421000003814697266e+00,2.862999916076660156e+00,1.065353216000000000e+09
-2.934999942779541016e+00,-2.543999910354614258e+00,3.180999994277954102e+00,1.065353216000000000e+09
-2.114000082015991211e+00,-1.879999995231628418e+00,2.486000061035156250e+00,1.065353216000000000e+09
-2.795000076293945312e+00,-2.447000026702880859e+00,2.665999889373779297e+00,1.065353216000000000e+09
-2.871000051498413086e+00,-2.555000066757202148e+00,2.947000026702880859e+00,1.065353216000000000e+09
-2.793999910354614258e+00,-2.532999992370605469e+00,3.092999935150146484e+00,1.065353216000000000e+09
-2.095000028610229492e+00,-1.942000031471252441e+00,2.510999917984008789e+00,1.065353216000000000e+09
-2.816999912261962891e+00,-2.588999986648559570e+00,2.753000020980834961e+00,1.065353216000000000e+09
-2.724999904632568359e+00,-2.539000034332275391e+00,2.861999988555908203e+00,1.065353216000000000e+09
-2.634999990463256836e+00,-2.496000051498413086e+00,2.980000019073486328e+00,1.065353216000000000e+09
-2.040999889373779297e+00,-1.973000049591064453e+00,2.496000051498413086e+00,1.065353216000000000e+09
-2.605999946594238281e+00,-2.513000011444091797e+00,2.611999988555908203e+00,1.065353216000000000e+09
-2.563999891281127930e+00,-2.502000093460083008e+00,2.757999897003173828e+00,1.065353216000000000e+09
0.000000000000000000e+00,0.000000000000000000e+00,0.000000000000000000e+00,1.065353216000000000e+09
-1.998000025749206543e+00,-2.013999938964843750e+00,2.494999885559082031e+00,1.065353216000000000e+09
-2.505000114440917969e+00,-2.533999919891357422e+00,2.578000068664550781e+00,1.065353216000000000e+09
-2.516000032424926758e+00,-2.571000099182128906e+00,2.775000095367431641e+00,1.065353216000000000e+09
0.000000000000000000e+00,0.000000000000000000e+00,0.000000000000000000e+00,1.065353216000000000e+09
-1.963000059127807617e+00,-2.062999963760375977e+00,2.505000114440917969e+00,1.065353216000000000e+09
0.000000000000000000e+00,0.000000000000000000e+00,0.000000000000000000e+00,1.065353216000000000e+09
-2.448999881744384766e+00,-2.621000051498413086e+00,2.773000001907348633e+00,1.065353216000000000e+09
0.000000000000000000e+00,0.000000000000000000e+00,0.000000000000000000e+00,1.065353216000000000e+09
-1.922999978065490723e+00,-2.108000040054321289e+00,2.509999990463256836e+00,1.065353216000000000e+09
0.000000000000000000e+00,0.000000000000000000e+00,0.000000000000000000e+00,1.065353216000000000e+09
-2.424999952316284180e+00,-2.719000101089477539e+00,2.821000099182128906e+00,1.065353216000000000e+09
-2.477999925613403320e+00,-2.799999952316284180e+00,3.082999944686889648e+00,1.065353216000000000e+09
-1.888000011444091797e+00,-2.157999992370605469e+00,2.523000001907348633e+00,1.065353216000000000e+09
-2.466000080108642578e+00,-2.884000062942504883e+00,2.769000053405761719e+00,1.065353216000000000e+09
0.000000000000000000e+00,0.000000000000000000e+00,0.000000000000000000e+00,1.065353216000000000e+09
-2.464999914169311523e+00,-2.913000106811523438e+00,3.150000095367431641e+00,1.065353216000000000e+09
-1.847000002861022949e+00,-2.201999902725219727e+00,2.529999971389770508e+00,1.065353216000000000e+09
-5.214000225067138672e+00,-6.403999805450439453e+00,6.044000148773193359e+00,1.065353216000000000e+09
0.000000000000000000e+00,0.000000000000000000e+00,0.000000000000000000e+00,1.065353216000000000e+09
-1.967000007629394531e+00,-2.430999994277954102e+00,2.582999944686889648e+00,1.065353216000000000e+09
-1.802000045776367188e+00,-2.242000102996826172e+00,2.530999898910522461e+00,1.065353216000000000e+09
-1.858999967575073242e+00,-2.398999929428100586e+00,2.227999925613403320e+00,1.065353216000000000e+09
-1.796000003814697266e+00,-2.319000005722045898e+00,2.285000085830688477e+00,1.065353216000000000e+09
-4.597000122070312500e+00,-5.940999984741210938e+00,6.211999893188476562e+00,1.065353216000000000e+09
-1.784999966621398926e+00,-2.318000078201293945e+00,2.575000047683715820e+00,1.065353216000000000e+09
-1.792999982833862305e+00,-2.430999994277954102e+00,2.223999977111816406e+00,1.065353216000000000e+09
-1.726999998092651367e+00,-2.338999986648559570e+00,2.269000053405761719e+00,1.065353216000000000e+09
-1.618999958038330078e+00,-2.190000057220458984e+00,2.253999948501586914e+00,1.065353216000000000e+09
0.000000000000000000e+00,0.000000000000000000e+00,0.000000000000000000e+00,1.065353216000000000e+09
-1.536999940872192383e+00,-2.193000078201293945e+00,1.978000044822692871e+00,1.065353216000000000e+09
0.000000000000000000e+00,0.000000000000000000e+00,0.000000000000000000e+00,1.065353216000000000e+09
-1.544999957084655762e+00,-2.188999891281127930e+00,2.220000028610229492e+00,1.065353216000000000e+09
0.000000000000000000e+00,0.000000000000000000e+00,0.000000000000000000e+00,1.065353216000000000e+09
-1.460999965667724609e+00,-2.196000099182128906e+00,1.952999949455261230e+00,1.065353216000000000e+09
0.000000000000000000e+00,0.000000000000000000e+00,0.000000000000000000e+00,1.065353216000000000e+09
-1.500000000000000000e+00,-2.227999925613403320e+00,2.226999998092651367e+00,1.065353216000000000e+09
-1.546000003814697266e+00,-2.290999889373779297e+00,2.430999994277954102e+00,1.065353216000000000e+09
-1.457000017166137695e+00,-2.305999994277954102e+00,2.026999950408935547e+00,1.065353216000000000e+09
-1.560999989509582520e+00,-2.450999975204467773e+00,2.280999898910522461e+00,1.065353216000000000e+09
-1.460999965667724609e+00,-2.276999950408935547e+00,2.246000051498413086e+00,1.065353216000000000e+09
-1.440000057220458984e+00,-2.230999946594238281e+00,2.335000038146972656e+00,1.065353216000000000e+09
-4.323999881744384766e+00,-7.224999904632568359e+00,6.276000022888183594e+00,1.065353216000000000e+09
-4.164000034332275391e+00,-6.880000114440917969e+00,6.326000213623046875e+00,1.065353216000000000e+09
-1.393000006675720215e+00,-2.279000043869018555e+00,2.219000101089477539e+00,1.065353216000000000e+09
-1.383999943733215332e+00,-2.246999979019165039e+00,2.319999933242797852e+00,1.065353216000000000e+09
-1.294999957084655762e+00,-2.286999940872192383e+00,1.965999960899353027e+00,1.065353216000000000e+09
