x,y,z,intensity
0.000000000000000000e+00,0.000000000000000000e+00,0.000000000000000000e+00,1.065353216000000000e+09
2.610000073909759521e-01,3.899999856948852539e-01,3.790000081062316895e-01,1.065353216000000000e+09
2.849999964237213135e-01,3.260000050067901611e-01,3.860000073909759521e-01,1.065353216000000000e+09
2.790000140666961670e-01,3.560000061988830566e-01,3.889999985694885254e-01,1.065353216000000000e+09
2.680000066757202148e-01,3.790000081062316895e-01,3.869999945163726807e-01,1.065353216000000000e+09
0.000000000000000000e+00,0.000000000000000000e+00,0.000000000000000000e+00,1.065353216000000000e+09
0.000000000000000000e+00,0.000000000000000000e+00,0.000000000000000000e+00,1.065353216000000000e+09
0.000000000000000000e+00,0.000000000000000000e+00,0.000000000000000000e+00,1.065353216000000000e+09
0.000000000000000000e+00,0.000000000000000000e+00,0.000000000000000000e+00,1.065353216000000000e+09
2.500000000000000000e-01,4.129999876022338867e-01,3.910000026226043701e-01,1.065353216000000000e+09
2.709999978542327881e-01,3.400000035762786865e-01,3.849999904632568359e-01,1.065353216000000000e+09
2.660000026226043701e-01,3.729999959468841553e-01,3.930000066757202148e-01,1.065353216000000000e+09
2.590000033378601074e-01,4.040000140666961670e-01,3.989999890327453613e-01,1.065353216000000000e+09
0.000000000000000000e+00,0.000000000000000000e+00,0.000000000000000000e+00,1.065353216000000000e+09
0.000000000000000000e+00,0.000000000000000000e+00,0.000000000000000000e+00,1.065353216000000000e+09
0.000000000000000000e+00,0.000000000000000000e+00,0.000000000000000000e+00,1.065353216000000000e+09
0.000000000000000000e+00,0.000000000000000000e+00,0.000000000000000000e+00,1.065353216000000000e+09
2.820000052452087402e-01,5.180000066757202148e-01,4.779999852180480957e-01,1.065353216000000000e+09
2.599999904632568359e-01,3.589999973773956299e-01,3.889999985694885254e-01,1.065353216000000000e+09
2.610000073909759521e-01,4.040000140666961670e-01,4.110000133514404297e-01,1.065353216000000000e+09
2.820000052452087402e-01,4.860000014305114746e-01,4.679999947547912598e-01,1.065353216000000000e+09
2.969999909400939941e-01,5.749999880790710449e-01,5.249999761581420898e-01,1.065353216000000000e+09
0.000000000000000000e+00,0.000000000000000000e+00,0.000000000000000000e+00,1.065353216000000000e+09
0.000000000000000000e+00,0.000000000000000000e+00,0.000000000000000000e+00,1.065353216000000000e+09
2.739999890327453613e-01,4.979999959468841553e-01,4.729999899864196777e-01,1.065353216000000000e+09
3.300000131130218506e-01,6.759999990463256836e-01,6.110000014305114746e-01,1.065353216000000000e+09
2.700000107288360596e-01,4.120000004768371582e-01,4.289999902248382568e-01,1.065353216000000000e+09
2.809999883174896240e-01,4.819999933242797852e-01,4.740000069141387939e-01,1.065353216000000000e+09
2.820000052452087402e-01,5.410000085830688477e-01,5.070000290870666504e-01,1.065353216000000000e+09
3.149999976158142090e-01,6.850000023841857910e-01,6.140000224113464355e-01,1.065353216000000000e+09
0.000000000000000000e+00,0.000000000000000000e+00,0.000000000000000000e+00,1.065353216000000000e+09
2.800000011920928955e-01,5.059999823570251465e-01,4.909999966621398926e-01,1.065353216000000000e+09
3.140000104904174805e-01,6.389999985694885254e-01,5.920000076293945312e-01,1.065353216000000000e+09
3.039999902248382568e-01,7.009999752044677734e-01,6.230000257492065430e-01,1.065353216000000000e+09
2.759999930858612061e-01,4.679999947547912598e-01,4.699999988079071045e-01,1.065353216000000000e+09
2.730000019073486328e-01,5.220000147819519043e-01,4.990000128746032715e-01,1.065353216000000000e+09
3.050000071525573730e-01,6.570000052452087402e-01,6.019999980926513672e-01,1.065353216000000000e+09
3.149999976158142090e-01,7.730000019073486328e-01,6.819999814033508301e-01,1.065353216000000000e+09
2.750000059604644775e-01,4.909999966621398926e-01,4.850000143051147461e-01,1.065353216000000000e+09
2.939999997615814209e-01,5.939999818801879883e-01,5.609999895095825195e-01,1.065353216000000000e+09
3.089999854564666748e-01,7.059999704360961914e-01,6.409999728202819824e-01,1.065353216000000000e+09
2.939999997615814209e-01,7.710000276565551758e-01,6.759999990463256836e-01,1.065353216000000000e+09
2.709999978542327881e-01,5.130000114440917969e-01,4.990000128746032715e-01,1.065353216000000000e+09
2.989999949932098389e-01,6.409999728202819824e-01,5.979999899864196777e-01,1.065353216000000000e+09
3.140000104904174805e-01,7.659999728202819824e-01,6.880000233650207520e-01,1.065353216000000000e+09
2.770000100135803223e-01,7.789999842643737793e-01,6.779999732971191406e-01,1.065353216000000000e+09
2.750000059604644775e-01,5.509999990463256836e-01,5.270000100135803223e-01,1.065353216000000000e+09
3.039999902248382568e-01,6.949999928474426270e-01,6.399999856948852539e-01,1.065353216000000000e+09
2.949999868869781494e-01,7.680000066757202148e-01,6.830000281333923340e-01,1.065353216000000000e+09
2.649999856948852539e-01,8.000000119209289551e-01,6.919999718666076660e-01,1.065353216000000000e+09
2.960000038146972656e-01,6.299999952316284180e-01,5.939999818801879883e-01,1.065353216000000000e+09
3.149999976158142090e-01,7.659999728202819824e-01,6.970000267028808594e-01,1.065353216000000000e+09
2.770000100135803223e-01,7.720000147819519043e-01,6.819999814033508301e-01,1.065353216000000000e+09
2.450000047683715820e-01,8.000000119209289551e-01,6.880000233650207520e-01,1.065353216000000000e+09
2.919999957084655762e-01,6.620000004768371582e-01,6.150000095367431641e-01,1.065353216000000000e+09
2.960000038146972656e-01,7.699999809265136719e-01,6.930000185966491699e-01,1.065353216000000000e+09
2.630000114440917969e-01,7.900000214576721191e-01,6.919999718666076660e-01,1.065353216000000000e+09
2.300000041723251343e-01,8.159999847412109375e-01,6.990000009536743164e-01,1.065353216000000000e+09
3.179999887943267822e-01,7.689999938011169434e-01,7.049999833106994629e-01,1.065353216000000000e+09
2.770000100135803223e-01,7.730000019073486328e-01,6.890000104904174805e-01,1.065353216000000000e+09
2.450000047683715820e-01,7.960000038146972656e-01,6.919999718666076660e-01,1.065353216000000000e+09
2.259999960660934448e-01,8.759999871253967285e-01,7.469999790191650391e-01,1.065353216000000000e+09
2.980000078678131104e-01,7.699999809265136719e-01,6.970000267028808594e-01,1.065353216000000000e+09
2.590000033378601074e-01,7.799999713897705078e-01,6.880000233650207520e-01,1.065353216000000000e+09
2.300000041723251343e-01,8.119999766349792480e-01,7.009999752044677734e-01,1.065353216000000000e+09
2.150000035762786865e-01,9.150000214576721191e-01,7.779999971389770508e-01,1.065353216000000000e+09
2.759999930858612061e-01,7.689999938011169434e-01,6.869999766349792480e-01,1.065353216000000000e+09
2.440000027418136597e-01,7.969999909400939941e-01,6.970000267028808594e-01,1.065353216000000000e+09
2.269999980926513672e-01,8.740000128746032715e-01,7.509999871253967285e-01,1.065353216000000000e+09
2.000000029802322388e-01,9.440000057220458984e-01,8.009999990463256836e-01,1.065353216000000000e+09
2.590000033378601074e-01,7.770000100135803223e-01,6.859999895095825195e-01,1.065353216000000000e+09
2.280000001192092896e-01,8.080000281333923340e-01,7.009999752044677734e-01,1.065353216000000000e+09
2.150000035762786865e-01,9.129999876022338867e-01,7.789999842643737793e-01,1.065353216000000000e+09
1.829999983310699463e-01,9.710000157356262207e-01,8.209999799728393555e-01,1.065353216000000000e+09
2.440000027418136597e-01,7.950000166893005371e-01,6.949999928474426270e-01,1.065353216000000000e+09
2.240000069141387939e-01,8.709999918937683105e-01,7.500000000000000000e-01,1.065353216000000000e+09
2.000000029802322388e-01,9.480000138282775879e-01,8.059999942779541016e-01,1.065353216000000000e+09
1.630000025033950806e-01,9.840000271797180176e-01,8.309999704360961914e-01,1.065353216000000000e+09
2.259999960660934448e-01,8.019999861717224121e-01,6.940000057220458984e-01,1.065353216000000000e+09
2.119999974966049194e-01,9.100000262260437012e-01,7.770000100135803223e-01,1.065353216000000000e+09
1.829999983310699463e-01,9.720000028610229492e-01,8.220000267028808594e-01,1.065353216000000000e+09
2.169999927282333374e-01,1.514000058174133301e+00,1.276000022888183594e+00,1.065353216000000000e+09
2.240000069141387939e-01,8.750000000000000000e-01,7.490000128746032715e-01,1.065353216000000000e+09
1.979999989271163940e-01,9.499999880790710449e-01,8.069999814033508301e-01,1.065353216000000000e+09
1.599999964237213135e-01,9.729999899864196777e-01,8.199999928474426270e-01,1.065353216000000000e+09
1.819999963045120239e-01,1.509999990463256836e+00,1.271000027656555176e+00,1.065353216000000000e+09
2.090000063180923462e-01,9.070000052452087402e-01,7.699999809265136719e-01,1.065353216000000000e+09
1.800000071525573730e-01,9.739999771118164062e-01,8.220000267028808594e-01,1.065353216000000000e+09
2.150000035762786865e-01,1.516999959945678711e+00,1.274999976158142090e+00,1.065353216000000000e+09
1.490000039339065552e-01,1.514000058174133301e+00,1.274000048637390137e+00,1.065353216000000000e+09
1.940000057220458984e-01,9.430000185966491699e-01,7.929999828338623047e-01,1.065353216000000000e+09
2.440000027418136597e-01,1.518000006675720215e+00,1.274000048637390137e+00,1.065353216000000000e+09
1.809999942779541016e-01,1.524999976158142090e+00,1.277999997138977051e+00,1.065353216000000000e+09
1.159999966621398926e-01,1.524000048637390137e+00,1.282999992370605469e+00,1.065353216000000000e+09
1.770000010728836060e-01,9.760000109672546387e-01,8.149999976158142090e-01,1.065353216000000000e+09
2.090000063180923462e-01,1.518000006675720215e+00,1.266999959945678711e+00,1.065353216000000000e+09
1.459999978542327881e-01,1.521000027656555176e+00,1.271999955177307129e+00,1.065353216000000000e+09
8.299999684095382690e-02,1.537999987602233887e+00,1.294999957084655762e+00,1.065353216000000000e+09
2.339999973773956299e-01,1.495000004768371582e+00,1.238999962806701660e+00,1.065353216000000000e+09
1.729999929666519165e-01,1.518000006675720215e+00,1.261999964714050293e+00,1.065353216000000000e+09
1.129999980330467224e-01,1.531999945640563965e+00,1.279000043869018555e+00,1.065353216000000000e+09
5.000000074505805969e-02,1.544999957084655762e+00,1.302999973297119141e+00,1.065353216000000000e+09
2.010000050067901611e-01,1.514999985694885254e+00,1.248000025749206543e+00,1.065353216000000000e+09
1.379999965429306030e-01,1.524000048637390137e+00,1.263000011444091797e+00,1.065353216000000000e+09
7.900000363588333130e-02,1.546000003814697266e+00,1.289000034332275391e+00,1.065353216000000000e+09
1.600000075995922089e-02,1.550999999046325684e+00,1.309999942779541016e+00,1.065353216000000000e+09
1.640000045299530029e-01,1.516000032424926758e+00,1.241000056266784668e+00,1.065353216000000000e+09
1.040000021457672119e-01,1.536000013351440430e+00,1.269000053405761719e+00,1.065353216000000000e+09
4.399999976158142090e-02,1.554000020027160645e+00,1.294999957084655762e+00,1.065353216000000000e+09
-1.700000092387199402e-02,1.549000024795532227e+00,1.310999989509582520e+00,1.065353216000000000e+09
1.289999932050704956e-01,1.527999997138977051e+00,1.243999958038330078e+00,1.065353216000000000e+09
6.800000369548797607e-02,1.547000050544738770e+00,1.274000048637390137e+00,1.065353216000000000e+09
8.999999612569808960e-03,1.549999952316284180e+00,1.292000055313110352e+00,1.065353216000000000e+09
-5.000000074505805969e-02,1.544000029563903809e+00,1.310999989509582520e+00,1.065353216000000000e+09
9.300000220537185669e-02,1.542999982833862305e+00,1.250000000000000000e+00,1.065353216000000000e+09
3.299999982118606567e-02,1.549999952316284180e+00,1.274000048637390137e+00,1.065353216000000000e+09
-2.500000037252902985e-02,1.550999999046325684e+00,1.292999982833862305e+00,1.065353216000000000e+09
-8.299999684095382690e-02,1.529999971389770508e+00,1.302999973297119141e+00,1.065353216000000000e+09
5.600000172853469849e-02,1.549000024795532227e+00,1.250000000000000000e+00,1.065353216000000000e+09
-2.000000094994902611e-03,1.552000045776367188e+00,1.273000001907348633e+00,1.065353216000000000e+09
-5.900000035762786865e-02,1.536000013351440430e+00,1.282999992370605469e+00,1.065353216000000000e+09
-1.159999966621398926e-01,1.516000032424926758e+00,1.294999957084655762e+00,1.065353216000000000e+09
1.999999955296516418e-02,1.552000045776367188e+00,1.246999979019165039e+00,1.065353216000000000e+09
-3.799999877810478210e-02,1.542999982833862305e+00,1.264999985694885254e+00,1.065353216000000000e+09
-9.300000220537185669e-02,1.524000048637390137e+00,1.274999976158142090e+00,1.065353216000000000e+09
-1.490000039339065552e-01,1.519999980926513672e+00,1.304000020027160645e+00,1.065353216000000000e+09
-1.700000092387199402e-02,1.544000029563903809e+00,1.236999988555908203e+00,1.065353216000000000e+09
-7.299999892711639404e-02,1.524999976158142090e+00,1.250000000000000000e+00,1.065353216000000000e+09
-1.270000040531158447e-01,1.521000027656555176e+00,1.274000048637390137e+00,1.065353216000000000e+09
-1.829999983310699463e-01,1.519999980926513672e+00,1.309999942779541016e+00,1.065353216000000000e+09
-5.299999937415122986e-02,1.519999980926513672e+00,1.215999960899353027e+00,1.065353216000000000e+09
-1.080000028014183044e-01,1.521000027656555176e+00,1.246999979019165039e+00,1.065353216000000000e+09
-1.620000004768371582e-01,1.526999950408935547e+00,1.282999992370605469e+00,1.065353216000000000e+09
-2.160000056028366089e-01,1.521999955177307129e+00,1.317999958992004395e+00,1.065353216000000000e+09
-8.900000154972076416e-02,1.518000006675720215e+00,1.212000012397766113e+00,1.065353216000000000e+09
-1.430000066757202148e-01,1.519999980926513672e+00,1.246999979019165039e+00,1.065353216000000000e+09
-1.969999969005584717e-01,1.526999950408935547e+00,1.286000013351440430e+00,1.065353216000000000e+09
-2.520000040531158447e-01,1.532999992370605469e+00,1.335000038146972656e+00,1.065353216000000000e+09
-1.260000020265579224e-01,1.519000053405761719e+00,1.210999965667724609e+00,1.065353216000000000e+09
-1.800000071525573730e-01,1.529000043869018555e+00,1.256000041961669922e+00,1.065353216000000000e+09
-2.329999953508377075e-01,1.537999987602233887e+00,1.299999952316284180e+00,1.065353216000000000e+09
-2.890000045299530029e-01,1.549000024795532227e+00,1.356999993324279785e+00,1.065353216000000000e+09
-1.630000025033950806e-01,1.527999997138977051e+00,1.218000054359436035e+00,1.065353216000000000e+09
-2.169999927282333374e-01,1.539000034332275391e+00,1.266999959945678711e+00,1.065353216000000000e+09
-2.709999978542327881e-01,1.552000045776367188e+00,1.317999958992004395e+00,1.065353216000000000e+09
-3.269999921321868896e-01,1.560999989509582520e+00,1.376999974250793457e+00,1.065353216000000000e+09
-2.020000070333480835e-01,1.544000029563903809e+00,1.230000019073486328e+00,1.065353216000000000e+09
-2.560000121593475342e-01,1.554000020027160645e+00,1.281999945640563965e+00,1.065353216000000000e+09
-3.100000023841857910e-01,1.569000005722045898e+00,1.338000059127807617e+00,1.065353216000000000e+09
-3.619999885559082031e-01,1.560999989509582520e+00,1.386000037193298340e+00,1.065353216000000000e+09
-2.419999986886978149e-01,1.554999947547912598e+00,1.240000009536743164e+00,1.065353216000000000e+09
-2.939999997615814209e-01,1.559999942779541016e+00,1.291000008583068848e+00,1.065353216000000000e+09
-3.449999988079071045e-01,1.562999963760375977e+00,1.340000033378601074e+00,1.065353216000000000e+09
-3.970000147819519043e-01,1.560999989509582520e+00,1.396000027656555176e+00,1.065353216000000000e+09
-2.809999883174896240e-01,1.557000041007995605e+00,1.243999958038330078e+00,1.065353216000000000e+09
-3.319999873638153076e-01,1.562000036239624023e+00,1.297000050544738770e+00,1.065353216000000000e+09
-3.829999864101409912e-01,1.567999958992004395e+00,1.351999998092651367e+00,1.065353216000000000e+09
-4.339999854564666748e-01,1.562999963760375977e+00,1.409000039100646973e+00,1.065353216000000000e+09
-3.199999928474426270e-01,1.560999989509582520e+00,1.250000000000000000e+00,1.065353216000000000e+09
-3.709999918937683105e-01,1.565999984741210938e+00,1.305999994277954102e+00,1.065353216000000000e+09
-4.189999997615814209e-01,1.559999942779541016e+00,1.353999972343444824e+00,1.065353216000000000e+09
-4.679999947547912598e-01,1.557000041007995605e+00,1.416000008583068848e+00,1.065353216000000000e+09
-3.580000102519989014e-01,1.554999947547912598e+00,1.248000025749206543e+00,1.065353216000000000e+09
-4.059999883174896240e-01,1.554000020027160645e+00,1.302999973297119141e+00,1.065353216000000000e+09
-4.530000090599060059e-01,1.549000024795532227e+00,1.353000044822692871e+00,1.065353216000000000e+09
-5.009999871253967285e-01,1.546000003814697266e+00,1.417999982833862305e+00,1.065353216000000000e+09
-3.939999938011169434e-01,1.539999961853027344e+00,1.240000009536743164e+00,1.065353216000000000e+09
-4.390000104904174805e-01,1.534999966621398926e+00,1.292999982833862305e+00,1.065353216000000000e+09
-4.869999885559082031e-01,1.537999987602233887e+00,1.353999972343444824e+00,1.065353216000000000e+09
0.000000000000000000e+00,0.000000000000000000e+00,0.000000000000000000e+00,1.065353216000000000e+09
-4.300000071525573730e-01,1.527999997138977051e+00,1.235000014305114746e+00,1.065353216000000000e+09
-4.799999892711639404e-01,1.539999961853027344e+00,1.304999947547912598e+00,1.065353216000000000e+09
-5.260000228881835938e-01,1.539000034332275391e+00,1.365000009536743164e+00,1.065353216000000000e+09
-3.149999976158142090e-01,8.460000157356262207e-01,7.910000085830688477e-01,1.065353216000000000e+09
-4.720000028610229492e-01,1.534999966621398926e+00,1.246999979019165039e+00,1.065353216000000000e+09
-5.170000195503234863e-01,1.534000039100646973e+00,1.309000015258789062e+00,1.065353216000000000e+09
0.000000000000000000e+00,0.000000000000000000e+00,0.000000000000000000e+00,1.065353216000000000e+09
-3.370000123977661133e-01,8.489999771118164062e-01,8.019999861717224121e-01,1.065353216000000000e+09
-5.130000114440917969e-01,1.534999966621398926e+00,1.253999948501586914e+00,1.065353216000000000e+09
-5.590000152587890625e-01,1.539000034332275391e+00,1.322999954223632812e+00,1.065353216000000000e+09
-3.289999961853027344e-01,8.399999737739562988e-01,7.590000033378601074e-01,1.065353216000000000e+09
-3.600000143051147461e-01,8.539999723434448242e-01,8.149999976158142090e-01,1.065353216000000000e+09
-5.619999766349792480e-01,1.555999994277954102e+00,1.279000043869018555e+00,1.065353216000000000e+09
-6.039999723434448242e-01,1.552000045776367188e+00,1.343999981880187988e+00,1.065353216000000000e+09
-3.540000021457672119e-01,8.479999899864196777e-01,7.720000147819519043e-01,1.065353216000000000e+09
-3.840000033378601074e-01,8.579999804496765137e-01,8.289999961853027344e-01,1.065353216000000000e+09
-6.090000271797180176e-01,1.570000052452087402e+00,1.297999978065490723e+00,1.065353216000000000e+09
0.000000000000000000e+00,0.000000000000000000e+00,0.000000000000000000e+00,1.065353216000000000e+09
-3.770000040531158447e-01,8.479999899864196777e-01,7.810000181198120117e-01,1.065353216000000000e+09
-4.040000140666961670e-01,8.550000190734863281e-01,8.349999785423278809e-01,1.065353216000000000e+09
-6.570000052452087402e-01,1.580000042915344238e+00,1.317000031471252441e+00,1.065353216000000000e+09
-3.740000128746032715e-01,8.429999947547912598e-01,7.429999709129333496e-01,1.065353216000000000e+09
-4.000000059604644775e-01,8.489999771118164062e-01,7.900000214576721191e-01,1.065353216000000000e+09
-4.129999876022338867e-01,8.280000090599060059e-01,8.190000057220458984e-01,1.065353216000000000e+09
-7.020000219345092773e-01,1.578999996185302734e+00,1.325999975204467773e+00,1.065353216000000000e+09
-3.989999890327453613e-01,8.460000157356262207e-01,7.530000209808349609e-01,1.065353216000000000e+09
-4.199999868869781494e-01,8.420000076293945312e-01,7.919999957084655762e-01,1.065353216000000000e+09
-4.280000030994415283e-01,8.149999976158142090e-01,8.159999847412109375e-01,1.065353216000000000e+09
0.000000000000000000e+00,0.000000000000000000e+00,0.000000000000000000e+00,1.065353216000000000e+09
-4.219999909400939941e-01,8.450000286102294922e-01,7.599999904632568359e-01,1.065353216000000000e+09
-4.440000057220458984e-01,8.439999818801879883e-01,8.040000200271606445e-01,1.065353216000000000e+09
-4.650000035762786865e-01,8.410000205039978027e-01,8.539999723434448242e-01,1.065353216000000000e+09
-4.280000030994415283e-01,8.489999771118164062e-01,7.269999980926513672e-01,1.065353216000000000e+09
-4.530000090599060059e-01,8.560000061988830566e-01,7.789999842643737793e-01,1.065353216000000000e+09
-4.539999961853027344e-01,8.169999718666076660e-01,7.879999876022338867e-01,1.065353216000000000e+09
-4.930000007152557373e-01,8.489999771118164062e-01,8.740000128746032715e-01,1.065353216000000000e+09
-4.550000131130218506e-01,8.519999980926513672e-01,7.369999885559082031e-01,1.065353216000000000e+09
-4.760000109672546387e-01,8.519999980926513672e-01,7.839999794960021973e-01,1.065353216000000000e+09
-4.779999852180480957e-01,8.169999718666076660e-01,7.979999780654907227e-01,1.065353216000000000e+09
-5.170000195503234863e-01,8.489999771118164062e-01,8.870000243186950684e-01,1.065353216000000000e+09
-4.830000102519989014e-01,8.550000190734863281e-01,7.480000257492065430e-01,1.065353216000000000e+09
-4.869999885559082031e-01,8.259999752044677734e-01,7.699999809265136719e-01,1.065353216000000000e+09
-5.230000019073486328e-01,8.500000238418579102e-01,8.429999947547912598e-01,1.065353216000000000e+09
-5.429999828338623047e-01,8.500000238418579102e-01,9.020000100135803223e-01,1.065353216000000000e+09
-5.120000243186950684e-01,8.579999804496765137e-01,7.599999904632568359e-01,1.065353216000000000e+09
-5.030000209808349609e-01,8.090000152587890625e-01,7.639999985694885254e-01,1.065353216000000000e+09
-5.479999780654907227e-01,8.489999771118164062e-01,8.539999723434448242e-01,1.065353216000000000e+09
-5.709999799728393555e-01,8.529999852180480957e-01,9.190000295639038086e-01,1.065353216000000000e+09
-5.260000228881835938e-01,8.349999785423278809e-01,7.490000128746032715e-01,1.065353216000000000e+09
-5.550000071525573730e-01,8.500000238418579102e-01,8.140000104904174805e-01,1.065353216000000000e+09
-5.789999961853027344e-01,8.550000190734863281e-01,8.730000257492065430e-01,1.065353216000000000e+09
-5.979999899864196777e-01,8.539999723434448242e-01,9.359999895095825195e-01,1.065353216000000000e+09
-5.389999747276306152e-01,8.119999766349792480e-01,7.390000224113464355e-01,1.065353216000000000e+09
-5.849999785423278809e-01,8.510000109672546387e-01,8.280000090599060059e-01,1.065353216000000000e+09
-6.100000143051147461e-01,8.579999804496765137e-01,8.909999728202819824e-01,1.065353216000000000e+09
-6.280000209808349609e-01,8.579999804496765137e-01,9.549999833106994629e-01,1.065353216000000000e+09
-5.920000076293945312e-01,8.460000157356262207e-01,7.810000181198120117e-01,1.065353216000000000e+09
-6.169999837875366211e-01,8.550000190734863281e-01,8.450000286102294922e-01,1.065353216000000000e+09
-6.389999985694885254e-01,8.590000271797180176e-01,9.060000181198120117e-01,1.065353216000000000e+09
-6.579999923706054688e-01,8.600000143051147461e-01,9.750000238418579102e-01,1.065353216000000000e+09
-6.269999742507934570e-01,8.519999980926513672e-01,7.990000247955322266e-01,1.065353216000000000e+09
-6.470000147819519043e-01,8.539999723434448242e-01,8.579999804496765137e-01,1.065353216000000000e+09
-6.679999828338623047e-01,8.569999933242797852e-01,9.200000166893005371e-01,1.065353216000000000e+09
-6.850000023841857910e-01,8.579999804496765137e-01,9.900000095367431641e-01,1.065353216000000000e+09
-6.570000052452087402e-01,8.489999771118164062e-01,8.100000023841857910e-01,1.065353216000000000e+09
-6.790000200271606445e-01,8.539999723434448242e-01,8.730000257492065430e-01,1.065353216000000000e+09
-6.990000009536743164e-01,8.579999804496765137e-01,9.369999766349792480e-01,1.065353216000000000e+09
-7.210000157356262207e-01,8.650000095367431641e-01,1.016999959945678711e+00,1.065353216000000000e+09
-6.869999766349792480e-01,8.460000157356262207e-01,8.209999799728393555e-01,1.065353216000000000e+09
-7.089999914169311523e-01,8.519999980926513672e-01,8.870000243186950684e-01,1.065353216000000000e+09
-7.310000061988830566e-01,8.569999933242797852e-01,9.549999833106994629e-01,1.065353216000000000e+09
-7.500000000000000000e-01,8.619999885559082031e-01,1.034000039100646973e+00,1.065353216000000000e+09
-7.120000123977661133e-01,8.339999914169311523e-01,8.240000009536743164e-01,1.065353216000000000e+09
-7.390000224113464355e-01,8.470000028610229492e-01,8.989999890327453613e-01,1.065353216000000000e+09
-7.639999985694885254e-01,8.569999933242797852e-01,9.739999771118164062e-01,1.065353216000000000e+09
-7.770000100135803223e-01,8.560000061988830566e-01,1.047999978065490723e+00,1.065353216000000000e+09
-7.269999980926513672e-01,8.119999766349792480e-01,8.180000185966491699e-01,1.065353216000000000e+09
-7.630000114440917969e-01,8.349999785423278809e-01,9.039999842643737793e-01,1.065353216000000000e+09
-7.889999747276306152e-01,8.460000157356262207e-01,9.819999933242797852e-01,1.065353216000000000e+09
-8.180000185966491699e-01,8.640000224113464355e-01,1.080000042915344238e+00,1.065353216000000000e+09
-7.649999856948852539e-01,8.130000233650207520e-01,8.370000123977661133e-01,1.065353216000000000e+09
-7.950000166893005371e-01,8.309999704360961914e-01,9.190000295639038086e-01,1.065353216000000000e+09
-8.240000009536743164e-01,8.460000157356262207e-01,1.003000020980834961e+00,1.065353216000000000e+09
-8.429999947547912598e-01,8.550000190734863281e-01,1.092000007629394531e+00,1.065353216000000000e+09
-7.730000019073486328e-01,7.839999794960021973e-01,8.249999880790710449e-01,1.065353216000000000e+09
-8.119999766349792480e-01,8.100000023841857910e-01,9.160000085830688477e-01,1.065353216000000000e+09
-8.489999771118164062e-01,8.339999914169311523e-01,1.011000037193298340e+00,1.065353216000000000e+09
-8.750000000000000000e-01,8.510000109672546387e-01,1.111999988555908203e+00,1.065353216000000000e+09
-7.680000066757202148e-01,7.419999837875366211e-01,7.979999780654907227e-01,1.065353216000000000e+09
-8.249999880790710449e-01,7.870000004768371582e-01,9.100000262260437012e-01,1.065353216000000000e+09
-8.679999709129333496e-01,8.159999847412109375e-01,1.013000011444091797e+00,1.065353216000000000e+09
-8.989999890327453613e-01,8.379999995231628418e-01,1.121000051498413086e+00,1.065353216000000000e+09
-6.589999794960021973e-01,6.069999933242797852e-01,6.690000295639038086e-01,1.065353216000000000e+09
-8.339999914169311523e-01,7.590000033378601074e-01,8.999999761581420898e-01,1.065353216000000000e+09
-8.840000033378601074e-01,7.950000166893005371e-01,1.011000037193298340e+00,1.065353216000000000e+09
-9.200000166893005371e-01,8.230000138282775879e-01,1.128000020980834961e+00,1.065353216000000000e+09
-6.610000133514404297e-01,5.799999833106994629e-01,6.560000181198120117e-01,1.065353216000000000e+09
-8.360000252723693848e-01,7.260000109672546387e-01,8.830000162124633789e-01,1.065353216000000000e+09
-8.949999809265136719e-01,7.699999809265136719e-01,1.004999995231628418e+00,1.065353216000000000e+09
-9.409999847412109375e-01,8.069999814033508301e-01,1.133999943733215332e+00,1.065353216000000000e+09
-6.700000166893005371e-01,5.600000023841857910e-01,6.510000228881835938e-01,1.065353216000000000e+09
-7.350000143051147461e-01,6.100000143051147461e-01,7.620000243186950684e-01,1.065353216000000000e+09
-8.930000066757202148e-01,7.340000271797180176e-01,9.840000271797180176e-01,1.065353216000000000e+09
-9.589999914169311523e-01,7.889999747276306152e-01,1.136999964714050293e+00,1.065353216000000000e+09
-6.800000071525573730e-01,5.419999957084655762e-01,6.470000147819519043e-01,1.065353216000000000e+09
-6.809999942779541016e-01,5.389999747276306152e-01,6.919999718666076660e-01,1.065353216000000000e+09
-8.769999742507934570e-01,6.899999976158142090e-01,9.509999752044677734e-01,1.065353216000000000e+09
-9.679999947547912598e-01,7.630000114440917969e-01,1.129999995231628418e+00,1.065353216000000000e+09
-6.880000233650207520e-01,5.220000147819519043e-01,6.420000195503234863e-01,1.065353216000000000e+09
-6.800000071525573730e-01,5.130000114440917969e-01,6.790000200271606445e-01,1.065353216000000000e+09
-8.590000271797180176e-01,6.460000276565551758e-01,9.160000085830688477e-01,1.065353216000000000e+09
-9.700000286102294922e-01,7.319999933242797852e-01,1.115000009536743164e+00,1.065353216000000000e+09
-7.049999833106994629e-01,5.080000162124633789e-01,6.460000276565551758e-01,1.065353216000000000e+09
-6.869999766349792480e-01,4.939999878406524658e-01,6.750000119209289551e-01,1.065353216000000000e+09
-8.299999833106994629e-01,5.960000157356262207e-01,8.709999918937683105e-01,1.065353216000000000e+09
-9.539999961853027344e-01,6.890000104904174805e-01,1.080999970436096191e+00,1.065353216000000000e+09
-6.890000104904174805e-01,4.729999899864196777e-01,6.209999918937683105e-01,1.065353216000000000e+09
-6.859999895095825195e-01,4.699999988079071045e-01,6.629999876022338867e-01,1.065353216000000000e+09
-7.919999957084655762e-01,5.429999828338623047e-01,8.190000057220458984e-01,1.065353216000000000e+09
-9.300000071525573730e-01,6.430000066757202148e-01,1.041000008583068848e+00,1.065353216000000000e+09
-6.679999828338623047e-01,4.350000023841857910e-01,5.920000076293945312e-01,1.065353216000000000e+09
-6.890000104904174805e-01,4.490000009536743164e-01,6.560000181198120117e-01,1.065353216000000000e+09
-7.059999704360961914e-01,4.609999954700469971e-01,7.200000286102294922e-01,1.065353216000000000e+09
-9.089999794960021973e-01,6.010000109672546387e-01,1.003999948501586914e+00,1.065353216000000000e+09
-6.639999747276306152e-01,4.099999964237213135e-01,5.789999961853027344e-01,1.065353216000000000e+09
-6.970000267028808594e-01,4.320000112056732178e-01,6.529999971389770508e-01,1.065353216000000000e+09
-6.949999928474426270e-01,4.320000112056732178e-01,6.990000009536743164e-01,1.065353216000000000e+09
-8.899999856948852539e-01,5.619999766349792480e-01,9.710000157356262207e-01,1.065353216000000000e+09
-6.669999957084655762e-01,3.899999856948852539e-01,5.730000138282775879e-01,1.065353216000000000e+09
-7.009999752044677734e-01,4.120000004768371582e-01,6.470000147819519043e-01,1.065353216000000000e+09
-6.890000104904174805e-01,4.079999923706054688e-01,6.840000152587890625e-01,1.065353216000000000e+09
-8.719999790191650391e-01,5.260000228881835938e-01,9.399999976158142090e-01,1.065353216000000000e+09
-6.840000152587890625e-01,3.790000081062316895e-01,5.789999961853027344e-01,1.065353216000000000e+09
-7.170000076293945312e-01,4.000000059604644775e-01,6.539999842643737793e-01,1.065353216000000000e+09
-6.859999895095825195e-01,3.860000073909759521e-01,6.719999909400939941e-01,1.065353216000000000e+09
-8.640000224113464355e-01,4.970000088214874268e-01,9.210000038146972656e-01,1.065353216000000000e+09
-1.733000040054321289e+00,9.060000181198120117e-01,1.447999954223632812e+00,1.065353216000000000e+09
-6.930000185966491699e-01,3.659999966621398926e-01,6.240000128746032715e-01,1.065353216000000000e+09
-6.830000281333923340e-01,3.650000095367431641e-01,6.620000004768371582e-01,1.065353216000000000e+09
-8.550000190734863281e-01,4.679999947547912598e-01,9.010000228881835938e-01,1.065353216000000000e+09
-1.743999958038330078e+00,8.590000271797180176e-01,1.437999963760375977e+00,1.065353216000000000e+09
-6.710000038146972656e-01,3.350000083446502686e-01,5.979999899864196777e-01,1.065353216000000000e+09
-6.940000057220458984e-01,3.519999980926513672e-01,6.650000214576721191e-01,1.065353216000000000e+09
-8.389999866485595703e-01,4.370000064373016357e-01,8.759999871253967285e-01,1.065353216000000000e+09
-1.766999959945678711e+00,8.190000057220458984e-01,1.440999984741210938e+00,1.065353216000000000e+09
-6.669999957084655762e-01,3.140000104904174805e-01,5.879999995231628418e-01,1.065353216000000000e+09
-6.940000057220458984e-01,3.330000042915344238e-01,6.579999923706054688e-01,1.065353216000000000e+09
-7.950000166893005371e-01,3.939999938011169434e-01,8.220000267028808594e-01,1.065353216000000000e+09
-1.774000048637390137e+00,7.720000147819519043e-01,1.430999994277954102e+00,1.065353216000000000e+09
-6.669999957084655762e-01,2.960000038146972656e-01,5.809999704360961914e-01,1.065353216000000000e+09
-6.970000267028808594e-01,3.160000145435333252e-01,6.549999713897705078e-01,1.065353216000000000e+09
-7.179999947547912598e-01,3.370000123977661133e-01,7.360000014305114746e-01,1.065353216000000000e+09
-1.779999971389770508e+00,7.250000238418579102e-01,1.421000003814697266e+00,1.065353216000000000e+09
-6.660000085830688477e-01,2.770000100135803223e-01,5.749999880790710449e-01,1.065353216000000000e+09
-7.039999961853027344e-01,3.000000119209289551e-01,6.549999713897705078e-01,1.065353216000000000e+09
-6.970000267028808594e-01,3.100000023841857910e-01,7.070000171661376953e-01,1.065353216000000000e+09
-1.792999982833862305e+00,6.809999942779541016e-01,1.417000055313110352e+00,1.065353216000000000e+09
-6.589999794960021973e-01,2.569999992847442627e-01,5.630000233650207520e-01,1.065353216000000000e+09
-7.020000219345092773e-01,2.820000052452087402e-01,6.480000019073486328e-01,1.065353216000000000e+09
-6.919999718666076660e-01,2.910000085830688477e-01,6.970000267028808594e-01,1.065353216000000000e+09
-1.800999999046325684e+00,6.349999904632568359e-01,1.411000013351440430e+00,1.065353216000000000e+09
-6.740000247955322266e-01,2.450000047683715820e-01,5.709999799728393555e-01,1.065353216000000000e+09
-7.070000171661376953e-01,2.660000026226043701e-01,6.470000147819519043e-01,1.065353216000000000e+09
-6.790000200271606445e-01,2.689999938011169434e-01,6.779999732971191406e-01,1.065353216000000000e+09
-1.807999968528747559e+00,5.899999737739562988e-01,1.404999971389770508e+00,1.065353216000000000e+09
-6.740000247955322266e-01,2.280000001192092896e-01,5.659999847412109375e-01,1.065353216000000000e+09
-7.220000028610229492e-01,2.540000081062316895e-01,6.549999713897705078e-01,1.065353216000000000e+09
-6.790000200271606445e-01,2.520000040531158447e-01,6.729999780654907227e-01,1.065353216000000000e+09
-1.824000000953674316e+00,5.479999780654907227e-01,1.406999945640563965e+00,1.065353216000000000e+09
-1.726999998092651367e+00,5.410000085830688477e-01,1.442000031471252441e+00,1.065353216000000000e+09
-7.239999771118164062e-01,2.370000034570693970e-01,6.529999971389770508e-01,1.065353216000000000e+09
-6.819999814033508301e-01,2.380000054836273193e-01,6.710000038146972656e-01,1.065353216000000000e+09
-1.833999991416931152e+00,5.040000081062316895e-01,1.404999971389770508e+00,1.065353216000000000e+09
-1.756000041961669922e+00,5.070000290870666504e-01,1.455999970436096191e+00,1.065353216000000000e+09
-7.009999752044677734e-01,2.129999995231628418e-01,6.280000209808349609e-01,1.065353216000000000e+09
-6.869999766349792480e-01,2.230000048875808716e-01,6.710000038146972656e-01,1.065353216000000000e+09
-1.833999991416931152e+00,4.580000042915344238e-01,1.396000027656555176e+00,1.065353216000000000e+09
-1.761999964714050293e+00,4.650000035762786865e-01,1.452000021934509277e+00,1.065353216000000000e+09
-6.930000185966491699e-01,1.940000057220458984e-01,6.169999837875366211e-01,1.065353216000000000e+09
-6.880000233650207520e-01,2.080000042915344238e-01,6.679999828338623047e-01,1.065353216000000000e+09
-1.835999965667724609e+00,4.129999876022338867e-01,1.391000032424926758e+00,1.065353216000000000e+09
-1.764999985694885254e+00,4.230000078678131104e-01,1.445999979972839355e+00,1.065353216000000000e+09
-6.750000119209289551e-01,1.729999929666519165e-01,5.979999899864196777e-01,1.065353216000000000e+09
-6.959999799728393555e-01,1.949999928474426270e-01,6.719999909400939941e-01,1.065353216000000000e+09
-1.847000002861022949e+00,3.700000047683715820e-01,1.391999959945678711e+00,1.065353216000000000e+09
-1.774000048637390137e+00,3.829999864101409912e-01,1.445999979972839355e+00,1.065353216000000000e+09
-6.589999794960021973e-01,1.529999971389770508e-01,5.799999833106994629e-01,1.065353216000000000e+09
-6.930000185966491699e-01,1.790000051259994507e-01,6.660000085830688477e-01,1.065353216000000000e+09
-1.848000049591064453e+00,3.249999880790710449e-01,1.386999964714050293e+00,1.065353216000000000e+09
-1.779999971389770508e+00,3.429999947547912598e-01,1.445000052452087402e+00,1.065353216000000000e+09
-6.420000195503234863e-01,1.350000053644180298e-01,5.630000233650207520e-01,1.065353216000000000e+09
-6.919999718666076660e-01,1.630000025033950806e-01,6.610000133514404297e-01,1.065353216000000000e+09
-1.855000019073486328e+00,2.809999883174896240e-01,1.386999964714050293e+00,1.065353216000000000e+09
-1.777999997138977051e+00,3.009999990463256836e-01,1.437000036239624023e+00,1.065353216000000000e+09
0.000000000000000000e+00,0.000000000000000000e+00,0.000000000000000000e+00,1.065353216000000000e+09
-6.999999880790710449e-01,1.500000059604644775e-01,6.660000085830688477e-01,1.065353216000000000e+09
-1.861999988555908203e+00,2.380000054836273193e-01,1.388000011444091797e+00,1.065353216000000000e+09
-1.774000048637390137e+00,2.590000033378601074e-01,1.429000020027160645e+00,1.065353216000000000e+09
0.000000000000000000e+00,0.000000000000000000e+00,0.000000000000000000e+00,1.065353216000000000e+09
-7.080000042915344238e-01,1.360000073909759521e-01,6.710000038146972656e-01,1.065353216000000000e+09
-1.868999958038330078e+00,1.940000057220458984e-01,1.389999985694885254e+00,1.065353216000000000e+09
-1.776999950408935547e+00,2.179999947547912598e-01,1.427000045776367188e+00,1.065353216000000000e+09
-1.699000000953674316e+00,2.430000007152557373e-01,1.472000002861022949e+00,1.065353216000000000e+09
-6.620000004768371582e-01,1.129999980330467224e-01,6.250000000000000000e-01,1.065353216000000000e+09
-1.870000004768371582e+00,1.500000059604644775e-01,1.388000011444091797e+00,1.065353216000000000e+09
-1.789999961853027344e+00,1.790000051259994507e-01,1.434000015258789062e+00,1.065353216000000000e+09
-1.707000017166137695e+00,2.060000002384185791e-01,1.475000023841857910e+00,1.065353216000000000e+09
0.000000000000000000e+00,0.000000000000000000e+00,0.000000000000000000e+00,1.065353216000000000e+09
-1.866000056266784668e+00,1.059999987483024597e-01,1.383000016212463379e+00,1.065353216000000000e+09
-1.787999987602233887e+00,1.379999965429306030e-01,1.429999947547912598e+00,1.065353216000000000e+09
-1.708999991416931152e+00,1.689999997615814209e-01,1.473000049591064453e+00,1.065353216000000000e+09
0.000000000000000000e+00,0.000000000000000000e+00,0.000000000000000000e+00,1.065353216000000000e+09
-1.873000025749206543e+00,6.300000101327896118e-02,1.388000011444091797e+00,1.065353216000000000e+09
-1.784999966621398926e+00,9.700000286102294922e-02,1.425999999046325684e+00,1.065353216000000000e+09
-1.718000054359436035e+00,1.319999992847442627e-01,1.478000044822692871e+00,1.065353216000000000e+09
0.000000000000000000e+00,0.000000000000000000e+00,0.000000000000000000e+00,1.065353216000000000e+09
-1.866999983787536621e+00,1.899999938905239105e-02,1.383000016212463379e+00,1.065353216000000000e+09
-1.789999961853027344e+00,5.700000002980232239e-02,1.429000020027160645e+00,1.065353216000000000e+09
-1.718999981880187988e+00,9.499999880790710449e-02,1.476999998092651367e+00,1.065353216000000000e+09
-1.633999943733215332e+00,1.410000026226043701e-01,1.523000001907348633e+00,1.065353216000000000e+09
-1.866999983787536621e+00,-2.400000020861625671e-02,1.383999943733215332e+00,1.065353216000000000e+09
-1.784000039100646973e+00,1.600000075995922089e-02,1.424000024795532227e+00,1.065353216000000000e+09
-1.720999956130981445e+00,5.700000002980232239e-02,1.476999998092651367e+00,1.065353216000000000e+09
-1.634999990463256836e+00,1.070000007748603821e-01,1.521999955177307129e+00,1.065353216000000000e+09
-1.860999941825866699e+00,-6.700000166893005371e-02,1.381000041961669922e+00,1.065353216000000000e+09
-1.779000043869018555e+00,-2.300000004470348358e-02,1.419999957084655762e+00,1.065353216000000000e+09
-1.725000023841857910e+00,1.999999955296516418e-02,1.478999972343444824e+00,1.065353216000000000e+09
-1.641999959945678711e+00,7.299999892711639404e-02,1.524999976158142090e+00,1.065353216000000000e+09
-1.865000009536743164e+00,-1.110000014305114746e-01,1.386999964714050293e+00,1.065353216000000000e+09
-1.774999976158142090e+00,-6.199999898672103882e-02,1.417999982833862305e+00,1.065353216000000000e+09
-1.717000007629394531e+00,-1.700000092387199402e-02,1.473000049591064453e+00,1.065353216000000000e+09
-1.646999955177307129e+00,3.900000080466270447e-02,1.526999950408935547e+00,1.065353216000000000e+09
-1.863999962806701660e+00,-1.539999991655349731e-01,1.389999985694885254e+00,1.065353216000000000e+09
-1.784999966621398926e+00,-1.030000001192092896e-01,1.427999973297119141e+00,1.065353216000000000e+09
-1.710999965667724609e+00,-5.400000140070915222e-02,1.467000007629394531e+00,1.065353216000000000e+09
-1.646999955177307129e+00,4.000000189989805222e-03,1.526000022888183594e+00,1.065353216000000000e+09
-1.861999988555908203e+00,-1.979999989271163940e-01,1.391999959945678711e+00,1.065353216000000000e+09
-1.776999950408935547e+00,-1.430000066757202148e-01,1.424000024795532227e+00,1.065353216000000000e+09
-1.712000012397766113e+00,-9.099999815225601196e-02,1.470000028610229492e+00,1.065353216000000000e+09
-1.639999985694885254e+00,-2.899999916553497314e-02,1.519000053405761719e+00,1.065353216000000000e+09
-1.856999993324279785e+00,-2.409999966621398926e-01,1.393000006675720215e+00,1.065353216000000000e+09
-1.787999987602233887e+00,-1.840000003576278687e-01,1.435999989509582520e+00,1.065353216000000000e+09
-1.710999965667724609e+00,-1.289999932050704956e-01,1.470999956130981445e+00,1.065353216000000000e+09
-1.654000043869018555e+00,-6.400000303983688354e-02,1.531999945640563965e+00,1.065353216000000000e+09
-1.853000044822692871e+00,-2.840000092983245850e-01,1.396000027656555176e+00,1.065353216000000000e+09
-1.774999976158142090e+00,-2.230000048875808716e-01,1.429999947547912598e+00,1.065353216000000000e+09
-1.707999944686889648e+00,-1.659999936819076538e-01,1.470000028610229492e+00,1.065353216000000000e+09
-1.628999948501586914e+00,-9.700000286102294922e-02,1.508999943733215332e+00,1.065353216000000000e+09
-1.860000014305114746e+00,-3.289999961853027344e-01,1.406999945640563965e+00,1.065353216000000000e+09
-1.786000013351440430e+00,-2.660000026226043701e-01,1.444000005722045898e+00,1.065353216000000000e+09
-1.710999965667724609e+00,-2.039999961853027344e-01,1.475999951362609863e+00,1.065353216000000000e+09
-1.639999985694885254e+00,-1.319999992847442627e-01,1.519000053405761719e+00,1.065353216000000000e+09
-1.851999998092651367e+00,-3.720000088214874268e-01,1.409000039100646973e+00,1.065353216000000000e+09
-1.779999971389770508e+00,-3.059999942779541016e-01,1.444000005722045898e+00,1.065353216000000000e+09
-1.710000038146972656e+00,-2.409999966621398926e-01,1.478999972343444824e+00,1.065353216000000000e+09
-1.636000037193298340e+00,-1.659999936819076538e-01,1.516999959945678711e+00,1.065353216000000000e+09
-1.840000033378601074e+00,-4.140000045299530029e-01,1.409000039100646973e+00,1.065353216000000000e+09
-1.776000022888183594e+00,-3.459999859333038330e-01,1.447999954223632812e+00,1.065353216000000000e+09
-1.700999975204467773e+00,-2.779999971389770508e-01,1.475999951362609863e+00,1.065353216000000000e+09
-1.629999995231628418e+00,-2.010000050067901611e-01,1.514000058174133301e+00,1.065353216000000000e+09
-1.843000054359436035e+00,-4.589999914169311523e-01,1.419999957084655762e+00,1.065353216000000000e+09
-1.766000032424926758e+00,-3.849999904632568359e-01,1.445999979972839355e+00,1.065353216000000000e+09
-1.715000033378601074e+00,-3.190000057220458984e-01,1.491999983787536621e+00,1.065353216000000000e+09
-1.634999990463256836e+00,-2.360000014305114746e-01,1.521999955177307129e+00,1.065353216000000000e+09
-1.840000033378601074e+00,-5.040000081062316895e-01,1.427999973297119141e+00,1.065353216000000000e+09
-1.771000027656555176e+00,-4.280000030994415283e-01,1.457999944686889648e+00,1.065353216000000000e+09
-1.710000038146972656e+00,-3.560000061988830566e-01,1.493999958038330078e+00,1.065353216000000000e+09
-1.634999990463256836e+00,-2.709999978542327881e-01,1.524000048637390137e+00,1.065353216000000000e+09
-1.838000059127807617e+00,-5.490000247955322266e-01,1.437000036239624023e+00,1.065353216000000000e+09
-1.769000053405761719e+00,-4.699999988079071045e-01,1.465999960899353027e+00,1.065353216000000000e+09
-1.707999944686889648e+00,-3.950000107288360596e-01,1.498999953269958496e+00,1.065353216000000000e+09
-1.623999953269958496e+00,-3.050000071525573730e-01,1.518000006675720215e+00,1.065353216000000000e+09
-1.827000021934509277e+00,-5.910000205039978027e-01,1.440000057220458984e+00,1.065353216000000000e+09
-1.771999955177307129e+00,-5.130000114440917969e-01,1.476999998092651367e+00,1.065353216000000000e+09
-1.703999996185302734e+00,-4.329999983310699463e-01,1.501999974250793457e+00,1.065353216000000000e+09
-1.641999959945678711e+00,-3.440000116825103760e-01,1.539000034332275391e+00,1.065353216000000000e+09
-1.820000052452087402e+00,-6.359999775886535645e-01,1.447000026702880859e+00,1.065353216000000000e+09
-1.763000011444091797e+00,-5.529999732971191406e-01,1.480999946594238281e+00,1.065353216000000000e+09
-1.707000017166137695e+00,-4.740000069141387939e-01,1.513000011444091797e+00,1.065353216000000000e+09
-1.636000037193298340e+00,-3.799999952316284180e-01,1.539000034332275391e+00,1.065353216000000000e+09
-1.807000041007995605e+00,-6.779999732971191406e-01,1.450000047683715820e+00,1.065353216000000000e+09
-1.756999969482421875e+00,-5.950000286102294922e-01,1.486999988555908203e+00,1.065353216000000000e+09
-1.699000000953674316e+00,-5.109999775886535645e-01,1.514999985694885254e+00,1.065353216000000000e+09
-1.636000037193298340e+00,-4.160000085830688477e-01,1.544000029563903809e+00,1.065353216000000000e+09
-1.800999999046325684e+00,-7.229999899864196777e-01,1.460000038146972656e+00,1.065353216000000000e+09
-1.750000000000000000e+00,-6.359999775886535645e-01,1.491999983787536621e+00,1.065353216000000000e+09
-1.694000005722045898e+00,-5.500000119209289551e-01,1.519999980926513672e+00,1.065353216000000000e+09
-1.628999948501586914e+00,-4.519999921321868896e-01,1.544000029563903809e+00,1.065353216000000000e+09
-1.789000034332275391e+00,-7.659999728202819824e-01,1.465999960899353027e+00,1.065353216000000000e+09
-1.746000051498413086e+00,-6.790000200271606445e-01,1.501999974250793457e+00,1.065353216000000000e+09
-1.682000041007995605e+00,-5.870000123977661133e-01,1.519000053405761719e+00,1.065353216000000000e+09
-1.631000041961669922e+00,-4.900000095367431641e-01,1.552999973297119141e+00,1.065353216000000000e+09
-1.781000018119812012e+00,-8.109999895095825195e-01,1.475999951362609863e+00,1.065353216000000000e+09
-1.731999993324279785e+00,-7.189999818801879883e-01,1.503999948501586914e+00,1.065353216000000000e+09
-1.679999947547912598e+00,-6.280000209808349609e-01,1.527999997138977051e+00,1.065353216000000000e+09
-1.631999969482421875e+00,-5.279999971389770508e-01,1.562000036239624023e+00,1.065353216000000000e+09
-1.756000041961669922e+00,-8.479999899864196777e-01,1.473000049591064453e+00,1.065353216000000000e+09
-1.720999956130981445e+00,-7.590000033378601074e-01,1.508999943733215332e+00,1.065353216000000000e+09
-1.674000024795532227e+00,-6.669999957084655762e-01,1.534999966621398926e+00,1.065353216000000000e+09
-1.621000051498413086e+00,-5.630000233650207520e-01,1.559999942779541016e+00,1.065353216000000000e+09
-1.751999974250793457e+00,-8.960000276565551758e-01,1.488000035285949707e+00,1.065353216000000000e+09
-1.710000038146972656e+00,-8.000000119209289551e-01,1.514999985694885254e+00,1.065353216000000000e+09
-1.659999966621398926e+00,-7.039999961853027344e-01,1.534999966621398926e+00,1.065353216000000000e+09
-1.623999953269958496e+00,-6.029999852180480957e-01,1.570999979972839355e+00,1.065353216000000000e+09
-1.738999962806701660e+00,-9.390000104904174805e-01,1.496999979019165039e+00,1.065353216000000000e+09
