x,y,z,intensity
6.811999797821044922e+00,6.145999908447265625e+00,6.808000087738037109e+00,1.065353216000000000e+09
6.777999877929687500e+00,6.170000076293945312e+00,6.386000156402587891e+00,1.065353216000000000e+09
6.644999980926513672e+00,6.119999885559082031e+00,5.905000209808349609e+00,1.065353216000000000e+09
6.590000152587890625e+00,6.171999931335449219e+00,7.142000198364257812e+00,1.065353216000000000e+09
6.500999927520751953e+00,6.129000186920166016e+00,6.631000041961669922e+00,1.065353216000000000e+09
6.541999816894531250e+00,6.232999801635742188e+00,6.300000190734863281e+00,1.065353216000000000e+09
6.609000205993652344e+00,6.383999824523925781e+00,6.013999938964843750e+00,1.065353216000000000e+09
6.363999843597412109e+00,6.211999893188476562e+00,7.027999877929687500e+00,1.065353216000000000e+09
6.439000129699707031e+00,6.341000080108642578e+00,6.706999778747558594e+00,1.065353216000000000e+09
6.537000179290771484e+00,6.519000053405761719e+00,6.440999984741210938e+00,1.065353216000000000e+09
6.592000007629394531e+00,6.677999973297119141e+00,6.151000022888183594e+00,1.065353216000000000e+09
6.322000026702880859e+00,6.434000015258789062e+00,7.124000072479248047e+00,1.065353216000000000e+09
6.388000011444091797e+00,6.571000099182128906e+00,6.801000118255615234e+00,1.065353216000000000e+09
6.493000030517578125e+00,6.778999805450439453e+00,6.554999828338623047e+00,1.065353216000000000e+09
6.546999931335449219e+00,6.955999851226806641e+00,6.270999908447265625e+00,1.065353216000000000e+09
6.296999931335449219e+00,6.678999900817871094e+00,7.243000030517578125e+00,1.065353216000000000e+09
6.364999771118164062e+00,6.840000152587890625e+00,6.932000160217285156e+00,1.065353216000000000e+09
6.440000057220458984e+00,7.039000034332275391e+00,6.666999816894531250e+00,1.065353216000000000e+09
6.498000144958496094e+00,7.243999958038330078e+00,6.400000095367431641e+00,1.065353216000000000e+09
6.269999980926513672e+00,6.934999942779541016e+00,7.372000217437744141e+00,1.065353216000000000e+09
6.341000080108642578e+00,7.122000217437744141e+00,7.076000213623046875e+00,1.065353216000000000e+09
6.406000137329101562e+00,7.333000183105468750e+00,6.809999942779541016e+00,1.065353216000000000e+09
6.468999862670898438e+00,7.570000171661376953e+00,6.559999942779541016e+00,1.065353216000000000e+09
6.235000133514404297e+00,7.190000057220458984e+00,7.497000217437744141e+00,1.065353216000000000e+09
6.302000045776367188e+00,7.399000167846679688e+00,7.212999820709228516e+00,1.065353216000000000e+09
6.374000072479248047e+00,7.642000198364257812e+00,6.965000152587890625e+00,1.065353216000000000e+09
6.428999900817871094e+00,7.894999980926513672e+00,6.718999862670898438e+00,1.065353216000000000e+09
6.201000213623046875e+00,7.459000110626220703e+00,7.631999969482421875e+00,1.065353216000000000e+09
6.269999980926513672e+00,7.695000171661376953e+00,7.364999771118164062e+00,1.065353216000000000e+09
6.322000026702880859e+00,7.942999839782714844e+00,7.111999988555908203e+00,1.065353216000000000e+09
6.392000198364257812e+00,8.243000030517578125e+00,6.895999908447265625e+00,1.065353216000000000e+09
5.844999790191650391e+00,7.336999893188476562e+00,7.375000000000000000e+00,1.065353216000000000e+09
6.212999820709228516e+00,7.974999904632568359e+00,7.500000000000000000e+00,1.065353216000000000e+09
6.290999889373779297e+00,8.286000251770019531e+00,7.294000148773193359e+00,1.065353216000000000e+09
6.347000122070312500e+00,8.602999687194824219e+00,7.080999851226806641e+00,1.065353216000000000e+09
5.692999839782714844e+00,7.460000038146972656e+00,7.369999885559082031e+00,1.065353216000000000e+09
5.962999820709228516e+00,8.010999679565429688e+00,7.408999919891357422e+00,1.065353216000000000e+09
6.238999843597412109e+00,8.619999885559082031e+00,7.467000007629394531e+00,1.065353216000000000e+09
6.298999786376953125e+00,8.979000091552734375e+00,7.277999877929687500e+00,1.065353216000000000e+09
5.500999927520751953e+00,7.526999950408935547e+00,7.313000202178955078e+00,1.065353216000000000e+09
5.705999851226806641e+00,8.026000022888183594e+00,7.303999900817871094e+00,1.065353216000000000e+09
5.978000164031982422e+00,8.671999931335449219e+00,7.399000167846679688e+00,1.065353216000000000e+09
6.250000000000000000e+00,9.376000404357910156e+00,7.492000102996826172e+00,1.065353216000000000e+09
5.289000034332275391e+00,7.565999984741210938e+00,7.234000205993652344e+00,1.065353216000000000e+09
5.449999809265136719e+00,8.032999992370605469e+00,7.198999881744384766e+00,1.065353216000000000e+09
5.714000225067138672e+00,8.708999633789062500e+00,7.322000026702880859e+00,1.065353216000000000e+09
5.886000156402587891e+00,9.305000305175781250e+00,7.335999965667724609e+00,1.065353216000000000e+09
5.106999874114990234e+00,7.638999938964843750e+00,7.191999912261962891e+00,1.065353216000000000e+09
5.270999908447265625e+00,8.147999763488769531e+00,7.197000026702880859e+00,1.065353216000000000e+09
5.402999877929687500e+00,8.659999847412109375e+00,7.183000087738037109e+00,1.065353216000000000e+09
5.557000160217285156e+00,9.267999649047851562e+00,7.214000225067138672e+00,1.065353216000000000e+09
4.905000209808349609e+00,7.679999828338623047e+00,7.124000072479248047e+00,1.065353216000000000e+09
5.081999778747558594e+00,8.246000289916992188e+00,7.183000087738037109e+00,1.065353216000000000e+09
5.188000202178955078e+00,8.758000373840332031e+00,7.171000003814697266e+00,1.065353216000000000e+09
5.289999961853027344e+00,9.317999839782714844e+00,7.168000221252441406e+00,1.065353216000000000e+09
4.677000045776367188e+00,7.671999931335449219e+00,7.015999794006347656e+00,1.065353216000000000e+09
4.782999992370605469e+00,8.159000396728515625e+00,7.013000011444091797e+00,1.065353216000000000e+09
4.907000064849853516e+00,8.732999801635742188e+00,7.064000129699707031e+00,1.065353216000000000e+09
5.027999877929687500e+00,9.373000144958496094e+00,7.131999969482421875e+00,1.065353216000000000e+09
4.502999782562255859e+00,7.747000217437744141e+00,6.988999843597412109e+00,1.065353216000000000e+09
4.612999916076660156e+00,8.279000282287597656e+00,7.027999877929687500e+00,1.065353216000000000e+09
4.671000003814697266e+00,8.779000282287597656e+00,7.020999908447265625e+00,1.065353216000000000e+09
4.730000019073486328e+00,9.345000267028808594e+00,7.038000106811523438e+00,1.065353216000000000e+09
4.348999977111816406e+00,7.856999874114990234e+00,6.994999885559082031e+00,1.065353216000000000e+09
4.337999820709228516e+00,8.204000473022460938e+00,6.880000114440917969e+00,1.065353216000000000e+09
4.435999870300292969e+00,8.817999839782714844e+00,6.974999904632568359e+00,1.065353216000000000e+09
4.525000095367431641e+00,9.498000144958496094e+00,7.086999893188476562e+00,1.065353216000000000e+09
4.258999824523925781e+00,8.090000152587890625e+00,7.111999988555908203e+00,1.065353216000000000e+09
4.243999958038330078e+00,8.472999572753906250e+00,7.025000095367431641e+00,1.065353216000000000e+09
4.238999843597412109e+00,8.930999755859375000e+00,6.993000030517578125e+00,1.065353216000000000e+09
4.322999954223632812e+00,9.661999702453613281e+00,7.144999980926513672e+00,1.065353216000000000e+09
4.157000064849853516e+00,8.315999984741210938e+00,7.223000049591064453e+00,1.065353216000000000e+09
4.149000167846679688e+00,8.758999824523925781e+00,7.184000015258789062e+00,1.065353216000000000e+09
4.162000179290771484e+00,9.310999870300292969e+00,7.222000122070312500e+00,1.065353216000000000e+09
4.236999988555908203e+00,1.010900020599365234e+01,7.415999889373779297e+00,1.065353216000000000e+09
3.828999996185302734e+00,8.081999778747558594e+00,6.939000129699707031e+00,1.065353216000000000e+09
3.788000106811523438e+00,8.472000122070312500e+00,6.876999855041503906e+00,1.065353216000000000e+09
4.022999763488769531e+00,9.586999893188476562e+00,7.370999813079833984e+00,1.065353216000000000e+09
4.028999805450439453e+00,1.029300022125244141e+01,7.497000217437744141e+00,1.065353216000000000e+09
3.661999940872192383e+00,8.168999671936035156e+00,6.935999870300292969e+00,1.065353216000000000e+09
3.911000013351440430e+00,9.289999961853027344e+00,7.467999935150146484e+00,1.065353216000000000e+09
3.986999988555908203e+00,1.014500045776367188e+01,7.736999988555908203e+00,1.065353216000000000e+09
3.884999990463256836e+00,1.067000007629394531e+01,7.722000122070312500e+00,1.065353216000000000e+09
3.551000118255615234e+00,8.387999534606933594e+00,7.047999858856201172e+00,1.065353216000000000e+09
3.665999889373779297e+00,9.274999618530273438e+00,7.388999938964843750e+00,1.065353216000000000e+09
3.716000080108642578e+00,1.013199996948242188e+01,7.668000221252441406e+00,1.065353216000000000e+09
3.582000017166137695e+00,1.062199974060058594e+01,7.643000125885009766e+00,1.065353216000000000e+09
3.665999889373779297e+00,9.197999954223632812e+00,7.651000022888183594e+00,1.065353216000000000e+09
3.585999965667724609e+00,9.694000244140625000e+00,7.657999992370605469e+00,1.065353216000000000e+09
3.457000017166137695e+00,1.014700031280517578e+01,7.626999855041503906e+00,1.065353216000000000e+09
3.285000085830688477e+00,1.056599998474121094e+01,7.561999797821044922e+00,1.065353216000000000e+09
3.473999977111816406e+00,9.284000396728515625e+00,7.649000167846679688e+00,1.065353216000000000e+09
3.342000007629394531e+00,9.684000015258789062e+00,7.589000225067138672e+00,1.065353216000000000e+09
2.834000110626220703e+00,8.986000061035156250e+00,6.712999820709228516e+00,1.065353216000000000e+09
2.993999958038330078e+00,1.051399993896484375e+01,7.492000102996826172e+00,1.065353216000000000e+09
3.253999948501586914e+00,9.291000366210937500e+00,7.584000110626220703e+00,1.065353216000000000e+09
3.099999904632568359e+00,9.675999641418457031e+00,7.526000022888183594e+00,1.065353216000000000e+09
2.627000093460083008e+00,9.048000335693359375e+00,6.719999790191650391e+00,1.065353216000000000e+09
2.714999914169311523e+00,1.046700000762939453e+01,7.428999900817871094e+00,1.065353216000000000e+09
3.038000106811523438e+00,9.300000190734863281e+00,7.526999950408935547e+00,1.065353216000000000e+09
2.657999992370605469e+00,8.967000007629394531e+00,6.926000118255615234e+00,1.065353216000000000e+09
2.665999889373779297e+00,1.003499984741210938e+01,7.414000034332275391e+00,1.065353216000000000e+09
2.430999994277954102e+00,1.038799953460693359e+01,7.349999904632568359e+00,1.065353216000000000e+09
2.779000043869018555e+00,9.159000396728515625e+00,7.352000236511230469e+00,1.065353216000000000e+09
2.631000041961669922e+00,9.656999588012695312e+00,7.410999774932861328e+00,1.065353216000000000e+09
2.411999940872192383e+00,9.994999885559082031e+00,7.350999832153320312e+00,1.065353216000000000e+09
1.978999972343444824e+00,9.468999862670898438e+00,6.682000160217285156e+00,1.065353216000000000e+09
2.519999980926513672e+00,8.993000030517578125e+00,7.162000179290771484e+00,1.065353216000000000e+09
2.397000074386596680e+00,9.628999710083007812e+00,7.347000122070312500e+00,1.065353216000000000e+09
2.013000011444091797e+00,9.274999618530273438e+00,6.795000076293945312e+00,1.065353216000000000e+09
1.702000021934509277e+00,9.229000091552734375e+00,6.500000000000000000e+00,1.065353216000000000e+09
2.403000116348266602e+00,9.336000442504882812e+00,7.381999969482421875e+00,1.065353216000000000e+09
2.163000106811523438e+00,9.593999862670898438e+00,7.280000209808349609e+00,1.065353216000000000e+09
1.794000029563903809e+00,9.295999526977539062e+00,6.788000106811523438e+00,1.065353216000000000e+09
1.504999995231628418e+00,9.421999931335449219e+00,6.627999782562255859e+00,1.065353216000000000e+09
2.186000108718872070e+00,9.314000129699707031e+00,7.315000057220458984e+00,1.065353216000000000e+09
1.884999990463256836e+00,9.314999580383300781e+00,7.034999847412109375e+00,1.065353216000000000e+09
1.560999989509582520e+00,9.218000411987304688e+00,6.710999965667724609e+00,1.065353216000000000e+09
1.264000058174133301e+00,9.343999862670898438e+00,6.568999767303466797e+00,1.065353216000000000e+09
1.973999977111816406e+00,9.293999671936035156e+00,7.252999782562255859e+00,1.065353216000000000e+09
1.656999945640563965e+00,9.241999626159667969e+00,6.949999809265136719e+00,1.065353216000000000e+09
1.363999962806701660e+00,9.347999572753906250e+00,6.790999889373779297e+00,1.065353216000000000e+09
1.034000039100646973e+00,9.300000190734863281e+00,6.538000106811523438e+00,1.065353216000000000e+09
1.764999985694885254e+00,9.279999732971191406e+00,7.198999881744384766e+00,1.065353216000000000e+09
1.440999984741210938e+00,9.190999984741210938e+00,6.883999824523925781e+00,1.065353216000000000e+09
1.139999985694885254e+00,9.303999900817871094e+00,6.747000217437744141e+00,1.065353216000000000e+09
8.370000123977661133e-01,9.588999748229980469e+00,6.744999885559082031e+00,1.065353216000000000e+09
1.555999994277954102e+00,9.256999969482421875e+00,7.143000125885009766e+00,1.065353216000000000e+09
1.238999962806701660e+00,9.244000434875488281e+00,6.901000022888183594e+00,1.065353216000000000e+09
9.259999990463256836e-01,9.324000358581542969e+00,6.752999782562255859e+00,1.065353216000000000e+09
6.219999790191650391e-01,9.803000450134277344e+00,6.902999877929687500e+00,1.065353216000000000e+09
1.350000023841857910e+00,9.237999916076660156e+00,7.093999862670898438e+00,1.065353216000000000e+09
1.042999982833862305e+00,9.354999542236328125e+00,6.964000225067138672e+00,1.065353216000000000e+09
7.279999852180480957e-01,9.559000015258789062e+00,6.920000076293945312e+00,1.065353216000000000e+09
3.840000033378601074e-01,9.689999580383300781e+00,6.835000038146972656e+00,1.065353216000000000e+09
1.144000053405761719e+00,9.204999923706054688e+00,7.037000179290771484e+00,1.065353216000000000e+09
8.339999914169311523e-01,9.354999542236328125e+00,6.947999954223632812e+00,1.065353216000000000e+09
5.049999952316284180e-01,9.489999771118164062e+00,6.869999885559082031e+00,1.065353216000000000e+09
1.509999930858612061e-01,9.586999893188476562e+00,6.778999805450439453e+00,1.065353216000000000e+09
9.399999976158142090e-01,9.177000045776367188e+00,6.986999988555908203e+00,1.065353216000000000e+09
6.209999918937683105e-01,9.305999755859375000e+00,6.899000167846679688e+00,1.065353216000000000e+09
2.829999923706054688e-01,9.397999763488769531e+00,6.808000087738037109e+00,1.065353216000000000e+09
-7.599999755620956421e-02,9.465999603271484375e+00,6.715000152587890625e+00,1.065353216000000000e+09
7.379999756813049316e-01,9.147000312805175781e+00,6.938000202178955078e+00,1.065353216000000000e+09
4.090000092983245850e-01,9.239999771118164062e+00,6.842000007629394531e+00,1.065353216000000000e+09
6.700000166893005371e-02,9.305999755859375000e+00,6.747000217437744141e+00,1.065353216000000000e+09
-2.960000038146972656e-01,9.362999916076660156e+00,6.664999961853027344e+00,1.065353216000000000e+09
5.370000004768371582e-01,9.102999687194824219e+00,6.885000228881835938e+00,1.065353216000000000e+09
2.029999941587448120e-01,9.177000045776367188e+00,6.789999961853027344e+00,1.065353216000000000e+09
-1.449999958276748657e-01,9.220000267028808594e+00,6.696000099182128906e+00,1.065353216000000000e+09
-5.120000243186950684e-01,9.244000434875488281e+00,6.606999874114990234e+00,1.065353216000000000e+09
3.389999866485595703e-01,9.067000389099121094e+00,6.837999820709228516e+00,1.065353216000000000e+09
0.000000000000000000e+00,9.112000465393066406e+00,6.739999771118164062e+00,1.065353216000000000e+09
-3.529999852180480957e-01,9.126000404357910156e+00,6.642000198364257812e+00,1.065353216000000000e+09
-7.229999899864196777e-01,9.130000114440917969e+00,6.556000232696533203e+00,1.065353216000000000e+09
1.420000046491622925e-01,9.005000114440917969e+00,6.776000022888183594e+00,1.065353216000000000e+09
-2.020000070333480835e-01,9.038000106811523438e+00,6.685999870300292969e+00,1.065353216000000000e+09
-5.569999814033508301e-01,9.041999816894531250e+00,6.598999977111816406e+00,1.065353216000000000e+09
-9.290000200271606445e-01,9.005999565124511719e+00,6.502999782562255859e+00,1.065353216000000000e+09
-5.099999904632568359e-02,8.947999954223632812e+00,6.722000122070312500e+00,1.065353216000000000e+09
-4.000000059604644775e-01,8.965000152587890625e+00,6.637000083923339844e+00,1.065353216000000000e+09
-7.590000033378601074e-01,8.946999549865722656e+00,6.550000190734863281e+00,1.065353216000000000e+09
-1.128999948501586914e+00,8.885000228881835938e+00,6.453000068664550781e+00,1.065353216000000000e+09
-2.450000047683715820e-01,8.899999618530273438e+00,6.677999973297119141e+00,1.065353216000000000e+09
-5.950000286102294922e-01,8.881999969482421875e+00,6.583000183105468750e+00,1.065353216000000000e+09
-9.539999961853027344e-01,8.845000267028808594e+00,6.500000000000000000e+00,1.065353216000000000e+09
-3.610000014305114746e-01,2.387000083923339844e+00,1.745000004768371582e+00,1.065353216000000000e+09
-4.359999895095825195e-01,8.850999832153320312e+00,6.636000156402587891e+00,1.065353216000000000e+09
-7.879999876022338867e-01,8.802000045776367188e+00,6.537000179290771484e+00,1.065353216000000000e+09
-1.146000027656555176e+00,8.730999946594238281e+00,6.446000099182128906e+00,1.065353216000000000e+09
-4.140000045299530029e-01,2.362999916076660156e+00,1.740000009536743164e+00,1.065353216000000000e+09
-6.259999871253967285e-01,8.791999816894531250e+00,6.590000152587890625e+00,1.065353216000000000e+09
-9.769999980926513672e-01,8.722000122070312500e+00,6.489999771118164062e+00,1.065353216000000000e+09
-3.619999885559082031e-01,2.342000007629394531e+00,1.736999988555908203e+00,1.065353216000000000e+09
-4.650000035762786865e-01,2.328999996185302734e+00,1.728000044822692871e+00,1.065353216000000000e+09
-8.130000233650207520e-01,8.727000236511230469e+00,6.541999816894531250e+00,1.065353216000000000e+09
-1.164000034332275391e+00,8.642999649047851562e+00,6.448999881744384766e+00,1.065353216000000000e+09
-4.129999876022338867e-01,2.321000099182128906e+00,1.730999946594238281e+00,1.065353216000000000e+09
-5.139999985694885254e-01,2.289999961853027344e+00,1.713000059127807617e+00,1.065353216000000000e+09
-9.980000257492065430e-01,8.663999557495117188e+00,6.500000000000000000e+00,1.065353216000000000e+09
-3.650000095367431641e-01,2.319000005722045898e+00,1.735999941825866699e+00,1.065353216000000000e+09
-4.620000123977661133e-01,2.292000055313110352e+00,1.718999981880187988e+00,1.065353216000000000e+09
-5.640000104904174805e-01,2.262000083923339844e+00,1.707000017166137695e+00,1.065353216000000000e+09
-1.179000020027160645e+00,8.581000328063964844e+00,6.443999767303466797e+00,1.065353216000000000e+09
-4.160000085830688477e-01,2.302999973297119141e+00,1.730999946594238281e+00,1.065353216000000000e+09
-5.109999775886535645e-01,2.263999938964843750e+00,1.708999991416931152e+00,1.065353216000000000e+09
-6.090000271797180176e-01,2.219000101089477539e+00,1.690999984741210938e+00,1.065353216000000000e+09
-3.680000007152557373e-01,2.306999921798706055e+00,1.735000014305114746e+00,1.065353216000000000e+09
-4.650000035762786865e-01,2.282999992370605469e+00,1.723000049591064453e+00,1.065353216000000000e+09
-5.590000152587890625e-01,2.233999967575073242e+00,1.699000000953674316e+00,1.065353216000000000e+09
-7.969999909400939941e-01,2.657000064849853516e+00,2.046000003814697266e+00,1.065353216000000000e+09
-4.199999868869781494e-01,2.302999973297119141e+00,1.735999941825866699e+00,1.065353216000000000e+09
-5.130000114440917969e-01,2.257999897003173828e+00,1.713000059127807617e+00,1.065353216000000000e+09
-6.050000190734863281e-01,2.201999902725219727e+00,1.687999963760375977e+00,1.065353216000000000e+09
-8.579999804496765137e-01,2.634000062942504883e+00,2.049999952316284180e+00,1.065353216000000000e+09
-4.670000076293945312e-01,2.275000095367431641e+00,1.720000028610229492e+00,1.065353216000000000e+09
-5.590000152587890625e-01,2.229000091552734375e+00,1.700999975204467773e+00,1.065353216000000000e+09
-7.940000295639038086e-01,2.651000022888183594e+00,2.049000024795532227e+00,1.065353216000000000e+09
-2.720000028610229492e+00,7.723000049591064453e+00,6.080999851226806641e+00,1.065353216000000000e+09
-5.139999985694885254e-01,2.255000114440917969e+00,1.710000038146972656e+00,1.065353216000000000e+09
-6.069999933242797852e-01,2.209000110626220703e+00,1.695000052452087402e+00,1.065353216000000000e+09
-2.540999889373779297e+00,7.829999923706054688e+00,6.105999946594238281e+00,1.065353216000000000e+09
-8.840000033378601074e-01,2.334000110626220703e+00,1.860000014305114746e+00,1.065353216000000000e+09
-5.630000233650207520e-01,2.237999916076660156e+00,1.703999996185302734e+00,1.065353216000000000e+09
-7.940000295639038086e-01,2.654999971389770508e+00,2.049999952316284180e+00,1.065353216000000000e+09
-2.701999902725219727e+00,7.716000080108642578e+00,6.074999809265136719e+00,1.065353216000000000e+09
-9.160000085830688477e-01,2.257999897003173828e+00,1.822999954223632812e+00,1.065353216000000000e+09
-6.090000271797180176e-01,2.213999986648559570e+00,1.692999958992004395e+00,1.065353216000000000e+09
-8.519999980926513672e-01,2.631000041961669922e+00,2.046999931335449219e+00,1.065353216000000000e+09
-8.899999856948852539e-01,2.368000030517578125e+00,1.883000016212463379e+00,1.065353216000000000e+09
-9.789999723434448242e-01,2.259999990463256836e+00,1.848000049591064453e+00,1.065353216000000000e+09
-7.969999909400939941e-01,2.664000034332275391e+00,2.046999931335449219e+00,1.065353216000000000e+09
-2.701999902725219727e+00,7.741000175476074219e+00,6.068999767303466797e+00,1.065353216000000000e+09
-9.100000262260437012e-01,2.260999917984008789e+00,1.817999958992004395e+00,1.065353216000000000e+09
-1.042999982833862305e+00,2.259999990463256836e+00,1.873999953269958496e+00,1.065353216000000000e+09
-8.529999852180480957e-01,2.638000011444091797e+00,2.038000106811523438e+00,1.065353216000000000e+09
-8.960000276565551758e-01,2.394999980926513672e+00,1.893000006675720215e+00,1.065353216000000000e+09
-9.689999818801879883e-01,2.259000062942504883e+00,1.837000012397766113e+00,1.065353216000000000e+09
-1.108999967575073242e+00,2.263000011444091797e+00,1.904999971389770508e+00,1.065353216000000000e+09
-9.110000133514404297e-01,2.618000030517578125e+00,2.035000085830688477e+00,1.065353216000000000e+09
-9.029999971389770508e-01,2.256000041961669922e+00,1.799999952316284180e+00,1.065353216000000000e+09
-1.031000018119812012e+00,2.257999897003173828e+00,1.858000040054321289e+00,1.065353216000000000e+09
-1.174999952316284180e+00,2.260999917984008789e+00,1.932999968528747559e+00,1.065353216000000000e+09
-8.899999856948852539e-01,2.384000062942504883e+00,1.865000009536743164e+00,1.065353216000000000e+09
-9.639999866485595703e-01,2.259999990463256836e+00,1.819000005722045898e+00,1.065353216000000000e+09
-1.093999981880187988e+00,2.259000062942504883e+00,1.881999969482421875e+00,1.065353216000000000e+09
-1.243000030517578125e+00,2.263000011444091797e+00,1.965000033378601074e+00,1.065353216000000000e+09
-8.999999761581420898e-01,2.257999897003173828e+00,1.779000043869018555e+00,1.065353216000000000e+09
-1.024000048637390137e+00,2.259000062942504883e+00,1.837000012397766113e+00,1.065353216000000000e+09
-1.157999992370605469e+00,2.257999897003173828e+00,1.906000018119812012e+00,1.065353216000000000e+09
-1.340999960899353027e+00,2.312000036239624023e+00,2.040999889373779297e+00,1.065353216000000000e+09
-9.580000042915344238e-01,2.256000041961669922e+00,1.791000008583068848e+00,1.065353216000000000e+09
-1.085000038146972656e+00,2.257999897003173828e+00,1.855000019073486328e+00,1.065353216000000000e+09
-1.223999977111816406e+00,2.257999897003173828e+00,1.932999968528747559e+00,1.065353216000000000e+09
-1.381000041961669922e+00,2.259000062942504883e+00,2.029000043869018555e+00,1.065353216000000000e+09
-1.019999980926513672e+00,2.259000062942504883e+00,1.809000015258789062e+00,1.065353216000000000e+09
-1.151000022888183594e+00,2.260999917984008789e+00,1.879999995231628418e+00,1.065353216000000000e+09
-1.317000031471252441e+00,2.302000045776367188e+00,1.998999953269958496e+00,1.065353216000000000e+09
-1.401000022888183594e+00,2.174999952316284180e+00,1.990000009536743164e+00,1.065353216000000000e+09
-1.082000017166137695e+00,2.262000083923339844e+00,1.827999949455261230e+00,1.065353216000000000e+09
-1.215999960899353027e+00,2.262000083923339844e+00,1.904000043869018555e+00,1.065353216000000000e+09
-1.378000020980834961e+00,2.286999940872192383e+00,2.016999959945678711e+00,1.065353216000000000e+09
-1.488000035285949707e+00,2.197000026702880859e+00,2.048000097274780273e+00,1.065353216000000000e+09
-1.146000027656555176e+00,2.262000083923339844e+00,1.845000028610229492e+00,1.065353216000000000e+09
-3.855000019073486328e+00,6.796999931335449219e+00,5.793000221252441406e+00,1.065353216000000000e+09
-1.381000041961669922e+00,2.177000045776367188e+00,1.950999975204467773e+00,1.065353216000000000e+09
-1.654000043869018555e+00,2.322999954223632812e+00,2.209000110626220703e+00,1.065353216000000000e+09
-1.207999944686889648e+00,2.256999969482421875e+00,1.860999941825866699e+00,1.065353216000000000e+09
-1.411000013351440430e+00,2.361999988555908203e+00,2.039999961853027344e+00,1.065353216000000000e+09
-1.452000021934509277e+00,2.176000118255615234e+00,1.983999967575073242e+00,1.065353216000000000e+09
-1.799000024795532227e+00,2.407999992370605469e+00,2.336999893188476562e+00,1.065353216000000000e+09
-3.913000106811523438e+00,6.934999942779541016e+00,5.781000137329101562e+00,1.065353216000000000e+09
-1.371999979019165039e+00,2.181999921798706055e+00,1.911999940872192383e+00,1.065353216000000000e+09
-1.633999943733215332e+00,2.332999944686889648e+00,2.164000034332275391e+00,1.065353216000000000e+09
-2.482000112533569336e+00,3.165999889373779297e+00,3.138999938964843750e+00,1.065353216000000000e+09
-1.393000006675720215e+00,2.342999935150146484e+00,1.976999998092651367e+00,1.065353216000000000e+09
-1.430999994277954102e+00,2.164999961853027344e+00,1.925999999046325684e+00,1.065353216000000000e+09
-1.774000048637390137e+00,2.411999940872192383e+00,2.279000043869018555e+00,1.065353216000000000e+09
-1.781999945640563965e+00,2.168999910354614258e+00,2.197999954223632812e+00,1.065353216000000000e+09
-1.358000040054321289e+00,2.171999931335449219e+00,1.855000019073486328e+00,1.065353216000000000e+09
-1.621999979019165039e+00,2.336999893188476562e+00,2.111999988555908203e+00,1.065353216000000000e+09
-2.153000116348266602e+00,2.792999982833862305e+00,2.690000057220458984e+00,1.065353216000000000e+09
-1.827999949455261230e+00,2.121999979019165039e+00,2.200999975204467773e+00,1.065353216000000000e+09
-1.427000045776367188e+00,2.171000003814697266e+00,1.878999948501586914e+00,1.065353216000000000e+09
-4.401000022888183594e+00,6.044000148773193359e+00,5.552999973297119141e+00,1.065353216000000000e+09
-2.569999933242797852e+00,3.180000066757202148e+00,3.125000000000000000e+00,1.065353216000000000e+09
-1.861999988555908203e+00,2.063999891281127930e+00,2.191999912261962891e+00,1.065353216000000000e+09
-1.610999941825866699e+00,2.335000038146972656e+00,2.049999952316284180e+00,1.065353216000000000e+09
-2.147000074386596680e+00,2.812999963760375977e+00,2.628999948501586914e+00,1.065353216000000000e+09
-2.213999986648559570e+00,2.615000009536743164e+00,2.622999906539916992e+00,1.065353216000000000e+09
-1.898000001907348633e+00,2.007999897003173828e+00,2.187000036239624023e+00,1.065353216000000000e+09
-1.759999990463256836e+00,2.430999994277954102e+00,2.167000055313110352e+00,1.065353216000000000e+09
-2.615000009536743164e+00,3.269000053405761719e+00,3.111999988555908203e+00,1.065353216000000000e+09
-2.267999887466430664e+00,2.559000015258789062e+00,2.624000072479248047e+00,1.065353216000000000e+09
-1.929000020027160645e+00,1.949000000953674316e+00,2.177999973297119141e+00,1.065353216000000000e+09
-2.148000001907348633e+00,2.829999923706054688e+00,2.562000036239624023e+00,1.065353216000000000e+09
-2.183000087738037109e+00,2.605000019073486328e+00,2.528000116348266602e+00,1.065353216000000000e+09
-1.921000003814697266e+00,2.071000099182128906e+00,2.171999931335449219e+00,1.065353216000000000e+09
-1.963999986648559570e+00,1.896000027656555176e+00,2.176000118255615234e+00,1.065353216000000000e+09
-4.827000141143798828e+00,6.066999912261962891e+00,5.585000038146972656e+00,1.065353216000000000e+09
-2.250999927520751953e+00,2.565999984741210938e+00,2.539999961853027344e+00,1.065353216000000000e+09
0.000000000000000000e+00,0.000000000000000000e+00,0.000000000000000000e+00,1.065353216000000000e+09
-1.985000014305114746e+00,1.830000042915344238e+00,2.160000085830688477e+00,1.065353216000000000e+09
-2.157000064849853516e+00,2.588000059127807617e+00,2.424999952316284180e+00,1.065353216000000000e+09
-2.325999975204467773e+00,2.532999992370605469e+00,2.559999942779541016e+00,1.065353216000000000e+09
-2.627000093460083008e+00,2.584000110626220703e+00,2.844000101089477539e+00,1.065353216000000000e+09
-1.993999958038330078e+00,1.754999995231628418e+00,2.131999969482421875e+00,1.065353216000000000e+09
-2.233000040054321289e+00,2.559000015258789062e+00,2.441999912261962891e+00,1.065353216000000000e+09
-2.778000116348266602e+00,2.890000104904174805e+00,2.986000061035156250e+00,1.065353216000000000e+09
-2.684999942779541016e+00,2.523999929428100586e+00,2.849999904632568359e+00,1.065353216000000000e+09
-2.028000116348266602e+00,1.703999996185302734e+00,2.134000062942504883e+00,1.065353216000000000e+09
-2.316999912261962891e+00,2.535000085830688477e+00,2.467999935150146484e+00,1.065353216000000000e+09
-2.617000102996826172e+00,2.601000070571899414e+00,2.750000000000000000e+00,1.065353216000000000e+09
-2.746000051498413086e+00,2.464999914169311523e+00,2.858999967575073242e+00,1.065353216000000000e+09
-2.049999952316284180e+00,1.644999980926513672e+00,2.125000000000000000e+00,1.065353216000000000e+09
-2.726000070571899414e+00,2.848999977111816406e+00,2.831000089645385742e+00,1.065353216000000000e+09
-2.664000034332275391e+00,2.529999971389770508e+00,2.740000009536743164e+00,1.065353216000000000e+09
-2.081000089645385742e+00,1.784999966621398926e+00,2.128999948501586914e+00,1.065353216000000000e+09
-2.075000047683715820e+00,1.588000059127807617e+00,2.119999885559082031e+00,1.065353216000000000e+09
-2.674000024795532227e+00,2.670000076293945312e+00,2.710000038146972656e+00,1.065353216000000000e+09
-2.696000099182128906e+00,2.446000099182128906e+00,2.716000080108642578e+00,1.065353216000000000e+09
-2.079999923706054688e+00,1.702999949455261230e+00,2.091000080108642578e+00,1.065353216000000000e+09
-2.072999954223632812e+00,1.513000011444091797e+00,2.088999986648559570e+00,1.065353216000000000e+09
-2.668999910354614258e+00,2.546000003814697266e+00,2.644000053405761719e+00,1.065353216000000000e+09
-2.076999902725219727e+00,1.799000024795532227e+00,2.051000118255615234e+00,1.065353216000000000e+09
-2.075000047683715820e+00,1.621999979019165039e+00,2.052999973297119141e+00,1.065353216000000000e+09
-2.239000082015991211e+00,1.557999968528747559e+00,2.226999998092651367e+00,1.065353216000000000e+09
-2.671999931335449219e+00,2.434000015258789062e+00,2.588999986648559570e+00,1.065353216000000000e+09
-2.099999904632568359e+00,1.738000035285949707e+00,2.036000013351440430e+00,1.065353216000000000e+09
-2.091000080108642578e+00,1.559000015258789062e+00,2.038000106811523438e+00,1.065353216000000000e+09
-3.357000112533569336e+00,2.223999977111816406e+00,3.299999952316284180e+00,1.065353216000000000e+09
-2.630000114440917969e+00,2.286999940872192383e+00,2.493999958038330078e+00,1.065353216000000000e+09
-2.188999891281127930e+00,1.728000044822692871e+00,2.085000038146972656e+00,1.065353216000000000e+09
-2.247999906539916992e+00,1.598000049591064453e+00,2.158999919891357422e+00,1.065353216000000000e+09
-3.473000049591064453e+00,2.190000057220458984e+00,3.377000093460083008e+00,1.065353216000000000e+09
-2.687999963760375977e+00,2.230999946594238281e+00,2.499000072479248047e+00,1.065353216000000000e+09
-2.217000007629394531e+00,1.669999957084655762e+00,2.075999975204467773e+00,1.065353216000000000e+09
-2.368000030517578125e+00,1.603999972343444824e+00,2.243000030517578125e+00,1.065353216000000000e+09
-3.680000066757202148e+00,2.206000089645385742e+00,3.540999889373779297e+00,1.065353216000000000e+09
-2.759999990463256836e+00,2.184999942779541016e+00,2.516000032424926758e+00,1.065353216000000000e+09
-2.246999979019165039e+00,1.613000035285949707e+00,2.071000099182128906e+00,1.065353216000000000e+09
-2.401999950408935547e+00,1.547999978065490723e+00,2.246000051498413086e+00,1.065353216000000000e+09
-3.769999980926513672e+00,2.144999980926513672e+00,3.592000007629394531e+00,1.065353216000000000e+09
-2.292000055313110352e+00,1.730000019073486328e+00,2.052000045776367188e+00,1.065353216000000000e+09
-2.352999925613403320e+00,1.608999967575073242e+00,2.135999917984008789e+00,1.065353216000000000e+09
-3.596999883651733398e+00,2.206000089645385742e+00,3.322999954223632812e+00,1.065353216000000000e+09
0.000000000000000000e+00,0.000000000000000000e+00,0.000000000000000000e+00,1.065353216000000000e+09
-2.328000068664550781e+00,1.674000024795532227e+00,2.046999931335449219e+00,1.065353216000000000e+09
-2.473000049591064453e+00,1.608999967575073242e+00,2.211999893188476562e+00,1.065353216000000000e+09
-3.651000022888183594e+00,2.125999927520751953e+00,3.334000110626220703e+00,1.065353216000000000e+09
0.000000000000000000e+00,0.000000000000000000e+00,0.000000000000000000e+00,1.065353216000000000e+09
-2.364000082015991211e+00,1.618999958038330078e+00,2.045000076293945312e+00,1.065353216000000000e+09
-2.512000083923339844e+00,1.554000020027160645e+00,2.217000007629394531e+00,1.065353216000000000e+09
-3.717999935150146484e+00,2.053999900817871094e+00,3.358999967575073242e+00,1.065353216000000000e+09
-3.812999963760375977e+00,1.840999960899353027e+00,3.542000055313110352e+00,1.065353216000000000e+09
-2.499000072479248047e+00,1.628000020980834961e+00,2.128000020980834961e+00,1.065353216000000000e+09
-3.773000001907348633e+00,2.216000080108642578e+00,3.286000013351440430e+00,1.065353216000000000e+09
0.000000000000000000e+00,0.000000000000000000e+00,0.000000000000000000e+00,1.065353216000000000e+09
-3.799999952316284180e+00,1.730999946594238281e+00,3.503999948501586914e+00,1.065353216000000000e+09
-2.601000070571899414e+00,1.608999967575073242e+00,2.181999921798706055e+00,1.065353216000000000e+09
-4.008999824523925781e+00,2.233999967575073242e+00,3.450000047683715820e+00,1.065353216000000000e+09
-3.756999969482421875e+00,1.858000040054321289e+00,3.328000068664550781e+00,1.065353216000000000e+09
-3.792000055313110352e+00,1.626000046730041504e+00,3.473000049591064453e+00,1.065353216000000000e+09
-2.632999897003173828e+00,1.546000003814697266e+00,2.177000045776367188e+00,1.065353216000000000e+09
0.000000000000000000e+00,0.000000000000000000e+00,0.000000000000000000e+00,1.065353216000000000e+09
-3.765000104904174805e+00,1.756999969482421875e+00,3.305000066757202148e+00,1.065353216000000000e+09
-3.829999923706054688e+00,1.541000008583068848e+00,3.486000061035156250e+00,1.065353216000000000e+09
-4.059999942779541016e+00,2.257999897003173828e+00,3.312000036239624023e+00,1.065353216000000000e+09
0.000000000000000000e+00,0.000000000000000000e+00,0.000000000000000000e+00,1.065353216000000000e+09
-3.782000064849853516e+00,1.661999940872192383e+00,3.292999982833862305e+00,1.065353216000000000e+09
-4.302999973297119141e+00,1.621000051498413086e+00,3.895999908447265625e+00,1.065353216000000000e+09
-4.242000102996826172e+00,2.230999946594238281e+00,3.417000055313110352e+00,1.065353216000000000e+09
-3.907000064849853516e+00,1.837000012397766113e+00,3.253999948501586914e+00,1.065353216000000000e+09
-3.812000036239624023e+00,1.572999954223632812e+00,3.293999910354614258e+00,1.065353216000000000e+09
-4.574999809265136719e+00,1.608000040054321289e+00,4.120999813079833984e+00,1.065353216000000000e+09
0.000000000000000000e+00,0.000000000000000000e+00,0.000000000000000000e+00,1.065353216000000000e+09
-3.944999933242797852e+00,1.746000051498413086e+00,3.255000114440917969e+00,1.065353216000000000e+09
-4.047999858856201172e+00,1.565000057220458984e+00,3.473999977111816406e+00,1.065353216000000000e+09
-4.938000202178955078e+00,1.613000035285949707e+00,4.428999900817871094e+00,1.065353216000000000e+09
-4.064000129699707031e+00,1.901000022888183594e+00,3.197000026702880859e+00,1.065353216000000000e+09
-3.971999883651733398e+00,1.649000048637390137e+00,3.247999906539916992e+00,1.065353216000000000e+09
-4.482999801635742188e+00,1.618000030517578125e+00,3.822000026702880859e+00,1.065353216000000000e+09
-5.361999988555908203e+00,1.621000051498413086e+00,4.790999889373779297e+00,1.065353216000000000e+09
-4.119999885559082031e+00,1.812000036239624023e+00,3.207999944686889648e+00,1.065353216000000000e+09
-4.005000114440917969e+00,1.555999994277954102e+00,3.247999906539916992e+00,1.065353216000000000e+09
-4.745999813079833984e+00,1.592000007629394531e+00,4.022999763488769531e+00,1.065353216000000000e+09
-2.871999979019165039e+00,7.990000247955322266e-01,2.556999921798706055e+00,1.065353216000000000e+09
-4.144999980926513672e+00,1.707999944686889648e+00,3.194999933242797852e+00,1.065353216000000000e+09
-4.324999809265136719e+00,1.567000031471252441e+00,3.480000019073486328e+00,1.065353216000000000e+09
-5.211999893188476562e+00,1.618999958038330078e+00,4.394999980926513672e+00,1.065353216000000000e+09
-2.894000053405761719e+00,7.360000014305114746e-01,2.569000005722045898e+00,1.065353216000000000e+09
-4.177000045776367188e+00,1.608000040054321289e+00,3.190999984741210938e+00,1.065353216000000000e+09
-4.776000022888183594e+00,1.608000040054321289e+00,3.818000078201293945e+00,1.065353216000000000e+09
-5.809999942779541016e+00,1.661999940872192383e+00,4.875000000000000000e+00,1.065353216000000000e+09
-2.903000116348266602e+00,6.710000038146972656e-01,2.571000099182128906e+00,1.065353216000000000e+09
-4.327000141143798828e+00,1.549999952316284180e+00,3.276999950408935547e+00,1.065353216000000000e+09
-5.183000087738037109e+00,1.613000035285949707e+00,4.117000102996826172e+00,1.065353216000000000e+09
-3.016000032424926758e+00,7.900000214576721191e-01,2.520999908447265625e+00,1.065353216000000000e+09
-2.904000043869018555e+00,6.039999723434448242e-01,2.566999912261962891e+00,1.065353216000000000e+09
-4.837999820709228516e+00,1.605999946594238281e+00,3.634000062942504883e+00,1.065353216000000000e+09
-5.625000000000000000e+00,1.608999967575073242e+00,4.440999984741210938e+00,1.065353216000000000e+09
-3.039999961853027344e+00,7.229999899864196777e-01,2.530999898910522461e+00,1.065353216000000000e+09
-2.907000064849853516e+00,5.379999876022338867e-01,2.566999912261962891e+00,1.065353216000000000e+09
-5.206999778747558594e+00,1.593999981880187988e+00,3.882999897003173828e+00,1.065353216000000000e+09
-3.124000072479248047e+00,8.159999847412109375e-01,2.453999996185302734e+00,1.065353216000000000e+09
-3.046000003814697266e+00,6.529999971389770508e-01,2.528000116348266602e+00,1.065353216000000000e+09
-2.911999940872192383e+00,4.729999899864196777e-01,2.568000078201293945e+00,1.065353216000000000e+09
-5.743999958038330078e+00,1.611999988555908203e+00,4.256999969482421875e+00,1.065353216000000000e+09
-3.115000009536743164e+00,7.379999756813049316e-01,2.436000108718872070e+00,1.065353216000000000e+09
-3.055000066757202148e+00,5.830000042915344238e-01,2.529999971389770508e+00,1.065353216000000000e+09
-2.908999919891357422e+00,4.070000052452087402e-01,2.563999891281127930e+00,1.065353216000000000e+09
-3.138000011444091797e+00,8.009999990463256836e-01,2.312000036239624023e+00,1.065353216000000000e+09
-3.128999948501586914e+00,6.660000085830688477e-01,2.437000036239624023e+00,1.065353216000000000e+09
-3.058000087738037109e+00,5.120000243186950684e-01,2.526000022888183594e+00,1.065353216000000000e+09
-2.914999961853027344e+00,3.429999947547912598e-01,2.569999933242797852e+00,1.065353216000000000e+09
-3.127000093460083008e+00,7.210000157356262207e-01,2.290999889373779297e+00,1.065353216000000000e+09
-3.134999990463256836e+00,5.920000076293945312e-01,2.434000015258789062e+00,1.065353216000000000e+09
-3.059000015258789062e+00,4.420000016689300537e-01,2.523999929428100586e+00,1.065353216000000000e+09
-2.947000026702880859e+00,2.809999883174896240e-01,2.598999977111816406e+00,1.065353216000000000e+09
-3.134999990463256836e+00,6.449999809265136719e-01,2.286000013351440430e+00,1.065353216000000000e+09
-3.217000007629394531e+00,5.310000181198120117e-01,2.490000009536743164e+00,1.065353216000000000e+09
-3.061000108718872070e+00,3.720000088214874268e-01,2.522000074386596680e+00,1.065353216000000000e+09
-3.311000108718872070e+00,2.430000007152557373e-01,2.921999931335449219e+00,1.065353216000000000e+09
-3.325999975204467773e+00,6.029999852180480957e-01,2.415999889373779297e+00,1.065353216000000000e+09
-3.220999956130981445e+00,4.550000131130218506e-01,2.487999916076660156e+00,1.065353216000000000e+09
-3.095999956130981445e+00,3.059999942779541016e-01,2.549999952316284180e+00,1.065353216000000000e+09
-3.325999975204467773e+00,1.710000038146972656e-01,2.937999963760375977e+00,1.065353216000000000e+09
-3.299000024795532227e+00,5.180000066757202148e-01,2.388999938964843750e+00,1.065353216000000000e+09
-3.220000028610229492e+00,3.799999952316284180e-01,2.482000112533569336e+00,1.065353216000000000e+09
-3.118000030517578125e+00,2.380000054836273193e-01,2.568000078201293945e+00,1.065353216000000000e+09
-3.321000099182128906e+00,9.899999946355819702e-02,2.938999891281127930e+00,1.065353216000000000e+09
-3.388000011444091797e+00,4.499999880790710449e-01,2.446000099182128906e+00,1.065353216000000000e+09
-3.262000083923339844e+00,3.089999854564666748e-01,2.512000083923339844e+00,1.065353216000000000e+09
-3.348999977111816406e+00,1.800000071525573730e-01,2.759999990463256836e+00,1.065353216000000000e+09
-3.355000019073486328e+00,2.700000070035457611e-02,2.974999904632568359e+00,1.065353216000000000e+09
-3.394999980926513672e+00,3.689999878406524658e-01,2.446000099182128906e+00,1.065353216000000000e+09
-3.331000089645385742e+00,2.380000054836273193e-01,2.563999891281127930e+00,1.065353216000000000e+09
-3.448999881744384766e+00,1.080000028014183044e-01,2.845000028610229492e+00,1.065353216000000000e+09
-2.352999925613403320e+00,-3.099999949336051941e-02,2.092999935150146484e+00,1.065353216000000000e+09
-3.440000057220458984e+00,2.919999957084655762e-01,2.474999904632568359e+00,1.065353216000000000e+09
-3.423000097274780273e+00,1.650000065565109253e-01,2.634000062942504883e+00,1.065353216000000000e+09
-3.349999904632568359e+00,2.999999932944774628e-02,2.766000032424926758e+00,1.065353216000000000e+09
-2.338000059127807617e+00,-8.200000226497650146e-02,2.085000038146972656e+00,1.065353216000000000e+09
-3.602999925613403320e+00,2.199999988079071045e-01,2.589999914169311523e+00,1.065353216000000000e+09
-3.553999900817871094e+00,9.000000357627868652e-02,2.736000061035156250e+00,1.065353216000000000e+09
-2.509999990463256836e+00,-3.299999982118606567e-02,2.076999902725219727e+00,1.065353216000000000e+09
-3.138000011444091797e+00,-1.780000030994415283e-01,2.808000087738037109e+00,1.065353216000000000e+09
-3.772000074386596680e+00,1.410000026226043701e-01,2.710999965667724609e+00,1.065353216000000000e+09
-3.559999942779541016e+00,8.000000379979610443e-03,2.744999885559082031e+00,1.065353216000000000e+09
-2.457000017166137695e+00,-8.699999749660491943e-02,2.038000106811523438e+00,1.065353216000000000e+09
-3.144999980926513672e+00,-2.469999939203262329e-01,2.825000047683715820e+00,1.065353216000000000e+09
-3.743999958038330078e+00,5.099999904632568359e-02,2.690999984741210938e+00,1.065353216000000000e+09
-2.674999952316284180e+00,-5.499999970197677612e-02,2.065000057220458984e+00,1.065353216000000000e+09
-2.529999971389770508e+00,-1.459999978542327881e-01,2.105000019073486328e+00,1.065353216000000000e+09
-3.154999971389770508e+00,-3.160000145435333252e-01,2.845999956130981445e+00,1.065353216000000000e+09
-2.851000070571899414e+00,-2.800000086426734924e-02,2.051000118255615234e+00,1.065353216000000000e+09
-2.670000076293945312e+00,-1.169999986886978149e-01,2.065999984741210938e+00,1.065353216000000000e+09
-3.332000017166137695e+00,-2.680000066757202148e-01,2.780999898910522461e+00,1.065353216000000000e+09
-3.253999948501586914e+00,-3.970000147819519043e-01,2.948999881744384766e+00,1.065353216000000000e+09
-2.825000047683715820e+00,-9.499999880790710449e-02,2.036000013351440430e+00,1.065353216000000000e+09
-3.522000074386596680e+00,-2.360000014305114746e-01,2.733000040054321289e+00,1.065353216000000000e+09
-3.415999889373779297e+00,-3.510000109672546387e-01,2.861999988555908203e+00,1.065353216000000000e+09
-3.096999883651733398e+00,-4.460000097751617432e-01,2.821000099182128906e+00,1.065353216000000000e+09
-3.723999977111816406e+00,-2.140000015497207642e-01,2.688999891281127930e+00,1.065353216000000000e+09
-3.549000024795532227e+00,-3.199999928474426270e-01,2.763000011444091797e+00,1.065353216000000000e+09
-3.345000028610229492e+00,-4.199999868869781494e-01,2.815999984741210938e+00,1.065353216000000000e+09
-3.260999917984008789e+00,-5.410000085830688477e-01,2.986000061035156250e+00,1.065353216000000000e+09
-3.734999895095825195e+00,-3.039999902248382568e-01,2.706000089645385742e+00,1.065353216000000000e+09
-3.579999923706054688e+00,-4.059999883174896240e-01,2.798000097274780273e+00,1.065353216000000000e+09
-3.563999891281127930e+00,-5.279999971389770508e-01,3.015000104904174805e+00,1.065353216000000000e+09
-2.842999935150146484e+00,-5.339999794960021973e-01,2.618999958038330078e+00,1.065353216000000000e+09
-3.790999889373779297e+00,-4.000000059604644775e-01,2.756000041961669922e+00,1.065353216000000000e+09
-3.831000089645385742e+00,-5.249999761581420898e-01,3.006999969482421875e+00,1.065353216000000000e+09
-3.029000043869018555e+00,-5.180000066757202148e-01,2.575000047683715820e+00,1.065353216000000000e+09
-2.769999980926513672e+00,-5.820000171661376953e-01,2.568000078201293945e+00,1.065353216000000000e+09
-4.065999984741210938e+00,-5.270000100135803223e-01,2.967999935150146484e+00,1.065353216000000000e+09
-3.209000110626220703e+00,-5.149999856948852539e-01,2.532000064849853516e+00,1.065353216000000000e+09
-2.947999954223632812e+00,-5.720000267028808594e-01,2.520999908447265625e+00,1.065353216000000000e+09
-2.756999969482421875e+00,-6.409999728202819824e-01,2.572999954223632812e+00,1.065353216000000000e+09
-3.394999980926513672e+00,-5.230000019073486328e-01,2.490999937057495117e+00,1.065353216000000000e+09
-3.131999969482421875e+00,-5.770000219345092773e-01,2.484999895095825195e+00,1.065353216000000000e+09
-2.937999963760375977e+00,-6.380000114440917969e-01,2.529000043869018555e+00,1.065353216000000000e+09
-2.736999988555908203e+00,-6.980000138282775879e-01,2.572000026702880859e+00,1.065353216000000000e+09
-3.309999942779541016e+00,-5.910000205039978027e-01,2.440999984741210938e+00,1.065353216000000000e+09
-3.115999937057495117e+00,-6.489999890327453613e-01,2.486999988555908203e+00,1.065353216000000000e+09
-2.917999982833862305e+00,-7.020000219345092773e-01,2.529000043869018555e+00,1.065353216000000000e+09
-2.721999883651733398e+00,-7.570000290870666504e-01,2.576999902725219727e+00,1.065353216000000000e+09
-3.293999910354614258e+00,-6.690000295639038086e-01,2.443000078201293945e+00,1.065353216000000000e+09
-3.099999904632568359e+00,-7.210000157356262207e-01,2.490999937057495117e+00,1.065353216000000000e+09
-2.897000074386596680e+00,-7.659999728202819824e-01,2.529999971389770508e+00,1.065353216000000000e+09
-2.709000110626220703e+00,-8.149999976158142090e-01,2.585000038146972656e+00,1.065353216000000000e+09
-3.275000095367431641e+00,-7.480000257492065430e-01,2.447000026702880859e+00,1.065353216000000000e+09
-3.075999975204467773e+00,-7.900000214576721191e-01,2.490000009536743164e+00,1.065353216000000000e+09
-2.881000041961669922e+00,-8.309999704360961914e-01,2.536000013351440430e+00,1.065353216000000000e+09
-2.678999900817871094e+00,-8.690000176429748535e-01,2.578999996185302734e+00,1.065353216000000000e+09
-3.253000020980834961e+00,-8.249999880790710449e-01,2.447999954223632812e+00,1.065353216000000000e+09
