x,y,z,intensity
0.000000000000000000e+00,0.000000000000000000e+00,0.000000000000000000e+00,1.065353216000000000e+09
0.000000000000000000e+00,0.000000000000000000e+00,0.000000000000000000e+00,1.065353216000000000e+09
9.229000091552734375e+00,6.489999771118164062e+00,7.376999855041503906e+00,1.065353216000000000e+09
0.000000000000000000e+00,0.000000000000000000e+00,0.000000000000000000e+00,1.065353216000000000e+09
1.464599990844726562e+01,1.020600032806396484e+01,1.022999954223632812e+01,1.065353216000000000e+09
0.000000000000000000e+00,0.000000000000000000e+00,0.000000000000000000e+00,1.065353216000000000e+09
0.000000000000000000e+00,0.000000000000000000e+00,0.000000000000000000e+00,1.065353216000000000e+09
1.085700035095214844e+01,7.927999973297119141e+00,8.225000381469726562e+00,1.065353216000000000e+09
0.000000000000000000e+00,0.000000000000000000e+00,0.000000000000000000e+00,1.065353216000000000e+09
0.000000000000000000e+00,0.000000000000000000e+00,0.000000000000000000e+00,1.065353216000000000e+09
0.000000000000000000e+00,0.000000000000000000e+00,0.000000000000000000e+00,1.065353216000000000e+09
1.036299991607666016e+01,7.923999786376953125e+00,7.986999988555908203e+00,1.065353216000000000e+09
0.000000000000000000e+00,0.000000000000000000e+00,0.000000000000000000e+00,1.065353216000000000e+09
0.000000000000000000e+00,0.000000000000000000e+00,0.000000000000000000e+00,1.065353216000000000e+09
6.250000000000000000e-01,5.009999871253967285e-01,5.249999761581420898e-01,1.065353216000000000e+09
9.656999588012695312e+00,7.730000019073486328e+00,7.579999923706054688e+00,1.065353216000000000e+09
0.000000000000000000e+00,0.000000000000000000e+00,0.000000000000000000e+00,1.065353216000000000e+09
0.000000000000000000e+00,0.000000000000000000e+00,0.000000000000000000e+00,1.065353216000000000e+09
5.669999718666076660e-01,4.749999940395355225e-01,4.839999973773956299e-01,1.065353216000000000e+09
9.055000305175781250e+00,7.580999851226806641e+00,7.242000102996826172e+00,1.065353216000000000e+09
1.101000022888183594e+01,9.291000366210937500e+00,8.295000076293945312e+00,1.065353216000000000e+09
0.000000000000000000e+00,0.000000000000000000e+00,0.000000000000000000e+00,1.065353216000000000e+09
5.529999732971191406e-01,4.830000102519989014e-01,4.810000061988830566e-01,1.065353216000000000e+09
0.000000000000000000e+00,0.000000000000000000e+00,0.000000000000000000e+00,1.065353216000000000e+09
1.027999973297119141e+01,9.093000411987304688e+00,7.912000179290771484e+00,1.065353216000000000e+09
0.000000000000000000e+00,0.000000000000000000e+00,0.000000000000000000e+00,1.065353216000000000e+09
4.869999885559082031e-01,4.440000057220458984e-01,4.309999942779541016e-01,1.065353216000000000e+09
5.619999766349792480e-01,5.149999856948852539e-01,4.679999947547912598e-01,1.065353216000000000e+09
9.689999580383300781e+00,8.977000236511230469e+00,7.625000000000000000e+00,1.065353216000000000e+09
0.000000000000000000e+00,0.000000000000000000e+00,0.000000000000000000e+00,1.065353216000000000e+09
4.769999980926513672e-01,4.539999961853027344e-01,4.309999942779541016e-01,1.065353216000000000e+09
5.389999747276306152e-01,5.159999728202819824e-01,4.589999914169311523e-01,1.065353216000000000e+09
8.897000312805175781e+00,8.635000228881835938e+00,7.165999889373779297e+00,1.065353216000000000e+09
1.051900005340576172e+01,1.032600021362304688e+01,7.967999935150146484e+00,1.065353216000000000e+09
5.059999823570251465e-01,5.009999871253967285e-01,4.659999907016754150e-01,1.065353216000000000e+09
5.239999890327453613e-01,5.239999890327453613e-01,4.550000131130218506e-01,1.065353216000000000e+09
0.000000000000000000e+00,0.000000000000000000e+00,0.000000000000000000e+00,1.065353216000000000e+09
9.699000358581542969e+00,9.991000175476074219e+00,7.541999816894531250e+00,1.065353216000000000e+09
5.289999842643737793e-01,5.469999909400939941e-01,4.979999959468841553e-01,1.065353216000000000e+09
4.639999866485595703e-01,4.850000143051147461e-01,4.129999876022338867e-01,1.065353216000000000e+09
5.249999761581420898e-01,5.590000152587890625e-01,4.440000057220458984e-01,1.065353216000000000e+09
8.862999916076660156e+00,9.585000038146972656e+00,7.085000038146972656e+00,1.065353216000000000e+09
5.429999828338623047e-01,5.849999785423278809e-01,5.230000019073486328e-01,1.065353216000000000e+09
4.440000057220458984e-01,4.860000014305114746e-01,4.050000011920928955e-01,1.065353216000000000e+09
5.019999742507934570e-01,5.600000023841857910e-01,4.359999895095825195e-01,1.065353216000000000e+09
8.104000091552734375e+00,9.197999954223632812e+00,6.666999816894531250e+00,1.065353216000000000e+09
0.000000000000000000e+00,0.000000000000000000e+00,0.000000000000000000e+00,1.065353216000000000e+09
4.309999942779541016e-01,4.920000135898590088e-01,4.029999971389770508e-01,1.065353216000000000e+09
4.930000007152557373e-01,5.759999752044677734e-01,4.410000145435333252e-01,1.065353216000000000e+09
7.460999965667724609e+00,8.894000053405761719e+00,6.328000068664550781e+00,1.065353216000000000e+09
0.000000000000000000e+00,0.000000000000000000e+00,0.000000000000000000e+00,1.065353216000000000e+09
4.149999916553497314e-01,4.959999918937683105e-01,3.980000019073486328e-01,1.065353216000000000e+09
4.779999852180480957e-01,5.849999785423278809e-01,4.399999976158142090e-01,1.065353216000000000e+09
0.000000000000000000e+00,0.000000000000000000e+00,0.000000000000000000e+00,1.065353216000000000e+09
3.930000066757202148e-01,4.819999933242797852e-01,4.070000052452087402e-01,1.065353216000000000e+09
4.000000059604644775e-01,5.009999871253967285e-01,3.950000107288360596e-01,1.065353216000000000e+09
4.749999940395355225e-01,6.100000143051147461e-01,4.510000050067901611e-01,1.065353216000000000e+09
4.799999892711639404e-01,6.320000290870666504e-01,4.339999854564666748e-01,1.065353216000000000e+09
3.919999897480010986e-01,5.030000209808349609e-01,4.169999957084655762e-01,1.065353216000000000e+09
3.919999897480010986e-01,5.130000114440917969e-01,3.980000019073486328e-01,1.065353216000000000e+09
4.620000123977661133e-01,6.219999790191650391e-01,4.519999921321868896e-01,1.065353216000000000e+09
4.609999954700469971e-01,6.389999985694885254e-01,4.329999983310699463e-01,1.065353216000000000e+09
0.000000000000000000e+00,0.000000000000000000e+00,0.000000000000000000e+00,1.065353216000000000e+09
3.740000128746032715e-01,5.130000114440917969e-01,3.919999897480010986e-01,1.065353216000000000e+09
4.490000009536743164e-01,6.349999904632568359e-01,4.539999961853027344e-01,1.065353216000000000e+09
4.550000131130218506e-01,6.629999876022338867e-01,4.420000016689300537e-01,1.065353216000000000e+09
4.009999930858612061e-01,5.609999895095825195e-01,4.510000050067901611e-01,1.065353216000000000e+09
3.659999966621398926e-01,5.270000100135803223e-01,3.959999978542327881e-01,1.065353216000000000e+09
4.370000064373016357e-01,6.499999761581420898e-01,4.589999914169311523e-01,1.065353216000000000e+09
4.420000016689300537e-01,6.790000200271606445e-01,4.469999969005584717e-01,1.065353216000000000e+09
0.000000000000000000e+00,0.000000000000000000e+00,0.000000000000000000e+00,1.065353216000000000e+09
3.529999852180480957e-01,5.320000052452087402e-01,3.939999938011169434e-01,1.065353216000000000e+09
4.239999949932098389e-01,6.629999876022338867e-01,4.609999954700469971e-01,1.065353216000000000e+09
4.269999861717224121e-01,6.930000185966491699e-01,4.499999880790710449e-01,1.065353216000000000e+09
3.619999885559082031e-01,5.550000071525573730e-01,4.329999983310699463e-01,1.065353216000000000e+09
3.409999907016754150e-01,5.400000214576721191e-01,3.950000107288360596e-01,1.065353216000000000e+09
4.029999971389770508e-01,6.639999747276306152e-01,4.560000002384185791e-01,1.065353216000000000e+09
4.199999868869781494e-01,7.179999947547912598e-01,4.609999954700469971e-01,1.065353216000000000e+09
3.540000021457672119e-01,5.680000185966491699e-01,4.370000064373016357e-01,1.065353216000000000e+09
3.339999914169311523e-01,5.559999942779541016e-01,4.009999930858612061e-01,1.065353216000000000e+09
3.689999878406524658e-01,6.399999856948852539e-01,4.339999854564666748e-01,1.065353216000000000e+09
4.390000104904174805e-01,7.940000295639038086e-01,5.040000081062316895e-01,1.065353216000000000e+09
3.470000028610229492e-01,5.849999785423278809e-01,4.440000057220458984e-01,1.065353216000000000e+09
3.210000097751617432e-01,5.630000233650207520e-01,4.009999930858612061e-01,1.065353216000000000e+09
3.470000028610229492e-01,6.359999775886535645e-01,4.269999861717224121e-01,1.065353216000000000e+09
4.000000059604644775e-01,7.670000195503234863e-01,4.819999933242797852e-01,1.065353216000000000e+09
3.389999866485595703e-01,5.989999771118164062e-01,4.490000009536743164e-01,1.065353216000000000e+09
3.100000023841857910e-01,5.720000267028808594e-01,4.029999971389770508e-01,1.065353216000000000e+09
3.490000069141387939e-01,6.759999990463256836e-01,4.490000009536743164e-01,1.065353216000000000e+09
0.000000000000000000e+00,0.000000000000000000e+00,0.000000000000000000e+00,1.065353216000000000e+09
3.350000083446502686e-01,6.230000257492065430e-01,4.620000123977661133e-01,1.065353216000000000e+09
3.009999990463256836e-01,5.860000252723693848e-01,4.079999923706054688e-01,1.065353216000000000e+09
3.089999854564666748e-01,6.349999904632568359e-01,4.169999957084655762e-01,1.065353216000000000e+09
0.000000000000000000e+00,0.000000000000000000e+00,0.000000000000000000e+00,1.065353216000000000e+09
3.289999961853027344e-01,6.439999938011169434e-01,4.720000028610229492e-01,1.065353216000000000e+09
2.910000085830688477e-01,6.000000238418579102e-01,4.129999876022338867e-01,1.065353216000000000e+09
2.989999949932098389e-01,6.529999971389770508e-01,4.250000119209289551e-01,1.065353216000000000e+09
0.000000000000000000e+00,0.000000000000000000e+00,0.000000000000000000e+00,1.065353216000000000e+09
3.100000023841857910e-01,6.389999985694885254e-01,4.629999995231628418e-01,1.065353216000000000e+09
2.800000011920928955e-01,6.100000143051147461e-01,4.169999957084655762e-01,1.065353216000000000e+09
2.849999964237213135e-01,6.629999876022338867e-01,4.280000030994415283e-01,1.065353216000000000e+09
3.569999933242797852e-01,8.830000162124633789e-01,5.370000004768371582e-01,1.065353216000000000e+09
0.000000000000000000e+00,0.000000000000000000e+00,0.000000000000000000e+00,1.065353216000000000e+09
2.730000019073486328e-01,6.309999823570251465e-01,4.269999861717224121e-01,1.065353216000000000e+09
2.809999883174896240e-01,6.959999799728393555e-01,4.449999928474426270e-01,1.065353216000000000e+09
3.330000042915344238e-01,8.859999775886535645e-01,5.350000262260437012e-01,1.065353216000000000e+09
0.000000000000000000e+00,0.000000000000000000e+00,0.000000000000000000e+00,1.065353216000000000e+09
2.619999945163726807e-01,6.460000276565551758e-01,4.329999983310699463e-01,1.065353216000000000e+09
2.669999897480010986e-01,7.089999914169311523e-01,4.499999880790710449e-01,1.065353216000000000e+09
3.149999976158142090e-01,9.029999971389770508e-01,5.419999957084655762e-01,1.065353216000000000e+09
1.973000049591064453e+00,4.835999965667724609e+00,3.398999929428100586e+00,1.065353216000000000e+09
2.520000040531158447e-01,6.629999876022338867e-01,4.410000145435333252e-01,1.065353216000000000e+09
2.520000040531158447e-01,7.179999947547912598e-01,4.530000090599060059e-01,1.065353216000000000e+09
2.980000078678131104e-01,9.250000119209289551e-01,5.519999861717224121e-01,1.065353216000000000e+09
0.000000000000000000e+00,0.000000000000000000e+00,0.000000000000000000e+00,1.065353216000000000e+09
2.409999966621398926e-01,6.779999732971191406e-01,4.469999969005584717e-01,1.065353216000000000e+09
2.409999966621398926e-01,7.429999709129333496e-01,4.659999907016754150e-01,1.065353216000000000e+09
0.000000000000000000e+00,0.000000000000000000e+00,0.000000000000000000e+00,1.065353216000000000e+09
2.450000047683715820e-01,6.850000023841857910e-01,4.729999899864196777e-01,1.065353216000000000e+09
2.370000034570693970e-01,7.189999818801879883e-01,4.709999859333038330e-01,1.065353216000000000e+09
2.339999973773956299e-01,7.839999794960021973e-01,4.889999926090240479e-01,1.065353216000000000e+09
1.386999964714050293e+00,5.144000053405761719e+00,3.048000097274780273e+00,1.065353216000000000e+09
0.000000000000000000e+00,0.000000000000000000e+00,0.000000000000000000e+00,1.065353216000000000e+09
2.290000021457672119e-01,7.519999742507934570e-01,4.889999926090240479e-01,1.065353216000000000e+09
2.339999973773956299e-01,8.529999852180480957e-01,5.299999713897705078e-01,1.065353216000000000e+09
1.223000049591064453e+00,5.019000053405761719e+00,2.963999986648559570e+00,1.065353216000000000e+09
0.000000000000000000e+00,0.000000000000000000e+00,0.000000000000000000e+00,1.065353216000000000e+09
2.280000001192092896e-01,8.100000023841857910e-01,5.239999890327453613e-01,1.065353216000000000e+09
0.000000000000000000e+00,0.000000000000000000e+00,0.000000000000000000e+00,1.065353216000000000e+09
1.070000052452087402e+00,4.895999908447265625e+00,2.884000062942504883e+00,1.065353216000000000e+09
1.292000055313110352e+00,4.486999988555908203e+00,3.028000116348266602e+00,1.065353216000000000e+09
1.179999947547912598e+00,4.584000110626220703e+00,2.947999954223632812e+00,1.065353216000000000e+09
0.000000000000000000e+00,0.000000000000000000e+00,0.000000000000000000e+00,1.065353216000000000e+09
9.240000247955322266e-01,4.772999763488769531e+00,2.806999921798706055e+00,1.065353216000000000e+09
1.169000029563903809e+00,4.413000106811523438e+00,2.957000017166137695e+00,1.065353216000000000e+09
1.054000020027160645e+00,4.511000156402587891e+00,2.887000083923339844e+00,1.065353216000000000e+09
9.229999780654907227e-01,4.586999893188476562e+00,2.818000078201293945e+00,1.065353216000000000e+09
7.829999923706054688e-01,4.645999908447265625e+00,2.729000091552734375e+00,1.065353216000000000e+09
0.000000000000000000e+00,0.000000000000000000e+00,0.000000000000000000e+00,1.065353216000000000e+09
9.309999942779541016e-01,4.423999786376953125e+00,2.819000005722045898e+00,1.065353216000000000e+09
7.960000038146972656e-01,4.492000102996826172e+00,2.753000020980834961e+00,1.065353216000000000e+09
6.529999971389770508e-01,4.534999847412109375e+00,2.663000106811523438e+00,1.065353216000000000e+09
1.360000073909759521e-01,6.200000047683715820e-01,4.099999964237213135e-01,1.065353216000000000e+09
8.140000104904174805e-01,4.348000049591064453e+00,2.759000062942504883e+00,1.065353216000000000e+09
6.750000119209289551e-01,4.403999805450439453e+00,2.694000005722045898e+00,1.065353216000000000e+09
5.299999713897705078e-01,4.435999870300292969e+00,2.605000019073486328e+00,1.065353216000000000e+09
0.000000000000000000e+00,0.000000000000000000e+00,0.000000000000000000e+00,1.065353216000000000e+09
7.020000219345092773e-01,4.278999805450439453e+00,2.706000089645385742e+00,1.065353216000000000e+09
5.590000152587890625e-01,4.308000087738037109e+00,2.631000041961669922e+00,1.065353216000000000e+09
4.110000133514404297e-01,4.323999881744384766e+00,2.542000055313110352e+00,1.065353216000000000e+09
0.000000000000000000e+00,0.000000000000000000e+00,0.000000000000000000e+00,1.065353216000000000e+09
5.929999947547912598e-01,4.201000213623046875e+00,2.650000095367431641e+00,1.065353216000000000e+09
4.480000138282775879e-01,4.217999935150146484e+00,2.573999881744384766e+00,1.065353216000000000e+09
3.000000119209289551e-01,4.234000205993652344e+00,2.492000102996826172e+00,1.065353216000000000e+09
0.000000000000000000e+00,0.000000000000000000e+00,0.000000000000000000e+00,1.065353216000000000e+09
4.889999926090240479e-01,4.124000072479248047e+00,2.594000101089477539e+00,1.065353216000000000e+09
3.440000116825103760e-01,4.139999866485595703e+00,2.526000022888183594e+00,1.065353216000000000e+09
1.940000057220458984e-01,4.132999897003173828e+00,2.437000036239624023e+00,1.065353216000000000e+09
5.270000100135803223e-01,4.039999961853027344e+00,2.625999927520751953e+00,1.065353216000000000e+09
3.889999985694885254e-01,4.052999973297119141e+00,2.545000076293945312e+00,1.065353216000000000e+09
2.419999986886978149e-01,4.045000076293945312e+00,2.467999935150146484e+00,1.065353216000000000e+09
9.200000017881393433e-02,4.035999774932861328e+00,2.387000083923339844e+00,1.065353216000000000e+09
4.329999983310699463e-01,3.986000061035156250e+00,2.581000089645385742e+00,1.065353216000000000e+09
2.910000085830688477e-01,3.974999904632568359e+00,2.492000102996826172e+00,1.065353216000000000e+09
1.449999958276748657e-01,3.950999975204467773e+00,2.411999940872192383e+00,1.065353216000000000e+09
-3.000000026077032089e-03,3.936000108718872070e+00,2.335000038146972656e+00,1.065353216000000000e+09
3.389999866485595703e-01,3.907999992370605469e+00,2.523000001907348633e+00,1.065353216000000000e+09
1.979999989271163940e-01,3.895999908447265625e+00,2.440999984741210938e+00,1.065353216000000000e+09
5.200000107288360596e-02,3.880000114440917969e+00,2.372999906539916992e+00,1.065353216000000000e+09
-9.499999880790710449e-02,3.836999893188476562e+00,2.283999919891357422e+00,1.065353216000000000e+09
2.500000000000000000e-01,3.857000112533569336e+00,2.483999967575073242e+00,1.065353216000000000e+09
1.080000028014183044e-01,3.821000099182128906e+00,2.392999887466430664e+00,1.065353216000000000e+09
-3.599999845027923584e-02,3.790999889373779297e+00,2.322999954223632812e+00,1.065353216000000000e+09
-1.829999983310699463e-01,3.742000102996826172e+00,2.237999916076660156e+00,1.065353216000000000e+09
1.630000025033950806e-01,3.788000106811523438e+00,2.434000015258789062e+00,1.065353216000000000e+09
2.199999988079071045e-02,3.746000051498413086e+00,2.345999956130981445e+00,1.065353216000000000e+09
-1.209999993443489075e-01,3.707000017166137695e+00,2.276999950408935547e+00,1.065353216000000000e+09
-2.660000026226043701e-01,3.654999971389770508e+00,2.197000026702880859e+00,1.065353216000000000e+09
7.900000363588333130e-02,3.716000080108642578e+00,2.384000062942504883e+00,1.065353216000000000e+09
-5.999999865889549255e-02,3.680999994277954102e+00,2.306999921798706055e+00,1.065353216000000000e+09
-2.020000070333480835e-01,3.634000062942504883e+00,2.239000082015991211e+00,1.065353216000000000e+09
-3.459999859333038330e-01,3.572999954223632812e+00,2.160000085830688477e+00,1.065353216000000000e+09
0.000000000000000000e+00,3.661000013351440430e+00,2.345000028610229492e+00,1.065353216000000000e+09
-1.389999985694885254e-01,3.608000040054321289e+00,2.263000011444091797e+00,1.065353216000000000e+09
-2.800000011920928955e-01,3.555000066757202148e+00,2.197000026702880859e+00,1.065353216000000000e+09
-4.199999868869781494e-01,3.471999883651733398e+00,2.111999988555908203e+00,1.065353216000000000e+09
-7.900000363588333130e-02,3.599999904632568359e+00,2.305000066757202148e+00,1.065353216000000000e+09
-2.160000056028366089e-01,3.542000055313110352e+00,2.224999904632568359e+00,1.065353216000000000e+09
-3.529999852180480957e-01,3.463000059127807617e+00,2.150000095367431641e+00,1.065353216000000000e+09
-4.939999878406524658e-01,3.401999950408935547e+00,2.082999944686889648e+00,1.065353216000000000e+09
-1.539999991655349731e-01,3.529000043869018555e+00,2.257999897003173828e+00,1.065353216000000000e+09
-2.899999916553497314e-01,3.466000080108642578e+00,2.181999921798706055e+00,1.065353216000000000e+09
-4.269999861717224121e-01,3.401999950408935547e+00,2.121999979019165039e+00,1.065353216000000000e+09
-5.640000104904174805e-01,3.323999881744384766e+00,2.051000118255615234e+00,1.065353216000000000e+09
-2.280000001192092896e-01,3.473999977111816406e+00,2.223999977111816406e+00,1.065353216000000000e+09
-3.619999885559082031e-01,3.403000116348266602e+00,2.148999929428100586e+00,1.065353216000000000e+09
-4.959999918937683105e-01,3.328999996185302734e+00,2.086999893188476562e+00,1.065353216000000000e+09
-6.280000209808349609e-01,3.230999946594238281e+00,2.009999990463256836e+00,1.065353216000000000e+09
-3.000000119209289551e-01,3.413000106811523438e+00,2.187000036239624023e+00,1.065353216000000000e+09
-4.309999942779541016e-01,3.336999893188476562e+00,2.114000082015991211e+00,1.065353216000000000e+09
-5.609999895095825195e-01,3.244999885559082031e+00,2.046999931335449219e+00,1.065353216000000000e+09
-6.919999718666076660e-01,3.157999992370605469e+00,1.981999993324279785e+00,1.065353216000000000e+09
-3.680000007152557373e-01,3.351999998092651367e+00,2.150000095367431641e+00,1.065353216000000000e+09
-4.959999918937683105e-01,3.259000062942504883e+00,2.072999954223632812e+00,1.065353216000000000e+09
-6.250000000000000000e-01,3.178999900817871094e+00,2.017999887466430664e+00,1.065353216000000000e+09
-7.540000081062316895e-01,3.085999965667724609e+00,1.955000042915344238e+00,1.065353216000000000e+09
-4.350000023841857910e-01,3.290999889373779297e+00,2.114000082015991211e+00,1.065353216000000000e+09
-5.609999895095825195e-01,3.201999902725219727e+00,2.043999910354614258e+00,1.065353216000000000e+09
-6.840000152587890625e-01,3.101000070571899414e+00,1.981999993324279785e+00,1.065353216000000000e+09
-8.100000023841857910e-01,3.006000041961669922e+00,1.922000050544738770e+00,1.065353216000000000e+09
-4.990000128746032715e-01,3.232000112533569336e+00,2.079999923706054688e+00,1.065353216000000000e+09
-6.230000257492065430e-01,3.138999938964843750e+00,2.013000011444091797e+00,1.065353216000000000e+09
-7.440000176429748535e-01,3.039000034332275391e+00,1.955999970436096191e+00,1.065353216000000000e+09
-8.669999837875366211e-01,2.937000036239624023e+00,1.896999955177307129e+00,1.065353216000000000e+09
-5.609999895095825195e-01,3.170000076293945312e+00,2.046000003814697266e+00,1.065353216000000000e+09
-6.800000071525573730e-01,3.065999984741210938e+00,1.976999998092651367e+00,1.065353216000000000e+09
-8.019999861717224121e-01,2.976000070571899414e+00,1.930999994277954102e+00,1.065353216000000000e+09
-9.169999957084655762e-01,2.855999946594238281e+00,1.865000009536743164e+00,1.065353216000000000e+09
-6.230000257492065430e-01,3.117000102996826172e+00,2.017999887466430664e+00,1.065353216000000000e+09
-7.390000224113464355e-01,3.007999897003173828e+00,1.950999975204467773e+00,1.065353216000000000e+09
-8.560000061988830566e-01,2.908999919891357422e+00,1.904000043869018555e+00,1.065353216000000000e+09
-9.689999818801879883e-01,2.789999961853027344e+00,1.843999981880187988e+00,1.065353216000000000e+09
-6.830000281333923340e-01,3.063999891281127930e+00,1.991000056266784668e+00,1.065353216000000000e+09
-7.979999780654907227e-01,2.957000017166137695e+00,1.929999947547912598e+00,1.065353216000000000e+09
-9.060000181198120117e-01,2.834000110626220703e+00,1.873000025749206543e+00,1.065353216000000000e+09
-1.019000053405761719e+00,2.723000049591064453e+00,1.822000026702880859e+00,1.065353216000000000e+09
-7.400000095367431641e-01,3.003999948501586914e+00,1.960999965667724609e+00,1.065353216000000000e+09
-8.479999899864196777e-01,2.882999897003173828e+00,1.894999980926513672e+00,1.065353216000000000e+09
-9.570000171661376953e-01,2.773000001907348633e+00,1.850000023841857910e+00,1.065353216000000000e+09
-1.065000057220458984e+00,2.651999950408935547e+00,1.799000024795532227e+00,1.065353216000000000e+09
-7.940000295639038086e-01,2.941999912261962891e+00,1.929000020027160645e+00,1.065353216000000000e+09
-9.020000100135803223e-01,2.828999996185302734e+00,1.873999953269958496e+00,1.065353216000000000e+09
-1.004999995231628418e+00,2.710000038146972656e+00,1.827000021934509277e+00,1.065353216000000000e+09
-1.105999946594238281e+00,2.575999975204467773e+00,1.771000027656555176e+00,1.065353216000000000e+09
-8.489999771118164062e-01,2.888000011444091797e+00,1.902999997138977051e+00,1.065353216000000000e+09
-9.520000219345092773e-01,2.766999959945678711e+00,1.848000049591064453e+00,1.065353216000000000e+09
-1.049000024795532227e+00,2.638000011444091797e+00,1.797999978065490723e+00,1.065353216000000000e+09
-1.149000048637390137e+00,2.512000083923339844e+00,1.751999974250793457e+00,1.065353216000000000e+09
-8.999999761581420898e-01,2.829999923706054688e+00,1.876000046730041504e+00,1.065353216000000000e+09
-1.000000000000000000e+00,2.706000089645385742e+00,1.822000026702880859e+00,1.065353216000000000e+09
-1.093999981880187988e+00,2.578000068664550781e+00,1.777999997138977051e+00,1.065353216000000000e+09
-1.187999963760375977e+00,2.444000005722045898e+00,1.730000019073486328e+00,1.065353216000000000e+09
-9.490000009536743164e-01,2.767999887466430664e+00,1.847000002861022949e+00,1.065353216000000000e+09
-1.047999978065490723e+00,2.651000022888183594e+00,1.802000045776367188e+00,1.065353216000000000e+09
-1.136000037193298340e+00,2.513999938964843750e+00,1.754999995231628418e+00,1.065353216000000000e+09
-1.225999951362609863e+00,2.377000093460083008e+00,1.708999991416931152e+00,1.065353216000000000e+09
-1.001000046730041504e+00,2.723000049591064453e+00,1.827999949455261230e+00,1.065353216000000000e+09
-1.090000033378601074e+00,2.582999944686889648e+00,1.773000001907348633e+00,1.065353216000000000e+09
-1.174000024795532227e+00,2.447000026702880859e+00,1.730999946594238281e+00,1.065353216000000000e+09
-1.259999990463256836e+00,2.309999942779541016e+00,1.687999963760375977e+00,1.065353216000000000e+09
-1.047999978065490723e+00,2.664000034332275391e+00,1.802999973297119141e+00,1.065353216000000000e+09
-1.131000041961669922e+00,2.520999908447265625e+00,1.748999953269958496e+00,1.065353216000000000e+09
-1.215000033378601074e+00,2.390000104904174805e+00,1.713000059127807617e+00,1.065353216000000000e+09
-1.296000003814697266e+00,2.249000072479248047e+00,1.671000003814697266e+00,1.065353216000000000e+09
-1.095000028610229492e+00,2.611000061035156250e+00,1.781000018119812012e+00,1.065353216000000000e+09
-1.175999999046325684e+00,2.470999956130981445e+00,1.731999993324279785e+00,1.065353216000000000e+09
-1.251000046730041504e+00,2.328999996185302734e+00,1.692000031471252441e+00,1.065353216000000000e+09
-1.330999970436096191e+00,2.190000057220458984e+00,1.656000018119812012e+00,1.065353216000000000e+09
-1.136000037193298340e+00,2.548000097274780273e+00,1.753000020980834961e+00,1.065353216000000000e+09
-1.215000033378601074e+00,2.411000013351440430e+00,1.710000038146972656e+00,1.065353216000000000e+09
-1.286000013351440430e+00,2.267999887466430664e+00,1.672000050544738770e+00,1.065353216000000000e+09
-1.361999988555908203e+00,2.127000093460083008e+00,1.638000011444091797e+00,1.065353216000000000e+09
-1.177000045776367188e+00,2.490000009536743164e+00,1.728999972343444824e+00,1.065353216000000000e+09
-1.251999974250793457e+00,2.351000070571899414e+00,1.687999963760375977e+00,1.065353216000000000e+09
-1.322000026702880859e+00,2.211999893188476562e+00,1.656000018119812012e+00,1.065353216000000000e+09
-1.396000027656555176e+00,2.072000026702880859e+00,1.626999974250793457e+00,1.065353216000000000e+09
-1.217000007629394531e+00,2.431999921798706055e+00,1.705999970436096191e+00,1.065353216000000000e+09
-1.291000008583068848e+00,2.296000003814697266e+00,1.671000003814697266e+00,1.065353216000000000e+09
-1.355999946594238281e+00,2.154999971389770508e+00,1.639999985694885254e+00,1.065353216000000000e+09
-1.427999973297119141e+00,2.016000032424926758e+00,1.615000009536743164e+00,1.065353216000000000e+09
-1.264000058174133301e+00,2.390000104904174805e+00,1.694000005722045898e+00,1.065353216000000000e+09
-1.325999975204467773e+00,2.237999916076660156e+00,1.651000022888183594e+00,1.065353216000000000e+09
-1.391000032424926758e+00,2.101000070571899414e+00,1.626999974250793457e+00,1.065353216000000000e+09
-1.455999970436096191e+00,1.957000017166137695e+00,1.600000023841857910e+00,1.065353216000000000e+09
-1.296000003814697266e+00,2.323999881744384766e+00,1.666000008583068848e+00,1.065353216000000000e+09
-1.361999988555908203e+00,2.184999942779541016e+00,1.634999990463256836e+00,1.065353216000000000e+09
-1.417999982833862305e+00,2.039000034332275391e+00,1.606999993324279785e+00,1.065353216000000000e+09
-1.485000014305114746e+00,1.901999950408935547e+00,1.590000033378601074e+00,1.065353216000000000e+09
-1.335999965667724609e+00,2.272000074386596680e+00,1.648000001907348633e+00,1.065353216000000000e+09
-1.399000048637390137e+00,2.134000062942504883e+00,1.621999979019165039e+00,1.065353216000000000e+09
-1.452999949455261230e+00,1.990000009536743164e+00,1.598000049591064453e+00,1.065353216000000000e+09
-1.508999943733215332e+00,1.842000007629394531e+00,1.575000047683715820e+00,1.065353216000000000e+09
-1.371999979019165039e+00,2.217999935150146484e+00,1.629999995231628418e+00,1.065353216000000000e+09
-1.429000020027160645e+00,2.075000047683715820e+00,1.601999998092651367e+00,1.065353216000000000e+09
-1.485000014305114746e+00,1.937999963760375977e+00,1.587000012397766113e+00,1.065353216000000000e+09
-1.534000039100646973e+00,1.786999940872192383e+00,1.562999963760375977e+00,1.065353216000000000e+09
-1.406999945640563965e+00,2.163000106811523438e+00,1.610999941825866699e+00,1.065353216000000000e+09
-1.463999986648559570e+00,2.026000022888183594e+00,1.590999960899353027e+00,1.065353216000000000e+09
-1.511000037193298340e+00,1.883000016212463379e+00,1.572999954223632812e+00,1.065353216000000000e+09
-1.562999963760375977e+00,1.738000035285949707e+00,1.557000041007995605e+00,1.065353216000000000e+09
-1.440999984741210938e+00,2.109999895095825195e+00,1.593999981880187988e+00,1.065353216000000000e+09
-1.493000030517578125e+00,1.970000028610229492e+00,1.575000047683715820e+00,1.065353216000000000e+09
-1.541000008583068848e+00,1.832000017166137695e+00,1.562999963760375977e+00,1.065353216000000000e+09
-1.592000007629394531e+00,1.689000010490417480e+00,1.552000045776367188e+00,1.065353216000000000e+09
-1.473999977111816406e+00,2.056999921798706055e+00,1.577999949455261230e+00,1.065353216000000000e+09
-1.523000001907348633e+00,1.917000055313110352e+00,1.559999942779541016e+00,1.065353216000000000e+09
-1.572000026702880859e+00,1.784000039100646973e+00,1.554999947547912598e+00,1.065353216000000000e+09
-1.616000056266784668e+00,1.638000011444091797e+00,1.544999957084655762e+00,1.065353216000000000e+09
-1.506000041961669922e+00,2.003999948501586914e+00,1.560999989509582520e+00,1.065353216000000000e+09
-1.550999999046325684e+00,1.863999962806701660e+00,1.547000050544738770e+00,1.065353216000000000e+09
-1.597000002861022949e+00,1.730999946594238281e+00,1.544000029563903809e+00,1.065353216000000000e+09
-1.633999943733215332e+00,1.580999970436096191e+00,1.531999945640563965e+00,1.065353216000000000e+09
-1.536000013351440430e+00,1.949000000953674316e+00,1.544999957084655762e+00,1.065353216000000000e+09
-1.578999996185302734e+00,1.812000036239624023e+00,1.534999966621398926e+00,1.065353216000000000e+09
-1.620000004768371582e+00,1.677999973297119141e+00,1.532999992370605469e+00,1.065353216000000000e+09
-1.659999966621398926e+00,1.534000039100646973e+00,1.529000043869018555e+00,1.065353216000000000e+09
-1.565999984741210938e+00,1.898000001907348633e+00,1.529999971389770508e+00,1.065353216000000000e+09
-1.605999946594238281e+00,1.761000037193298340e+00,1.521999955177307129e+00,1.065353216000000000e+09
-1.646999955177307129e+00,1.629999995231628418e+00,1.526000022888183594e+00,1.065353216000000000e+09
-1.677999973297119141e+00,1.480000019073486328e+00,1.519000053405761719e+00,1.065353216000000000e+09
-1.590999960899353027e+00,1.840000033378601074e+00,1.511999964714050293e+00,1.065353216000000000e+09
-1.641999959945678711e+00,1.720000028610229492e+00,1.519999980926513672e+00,1.065353216000000000e+09
-1.672000050544738770e+00,1.580999970436096191e+00,1.519000053405761719e+00,1.065353216000000000e+09
-1.690000057220458984e+00,1.424000024795532227e+00,1.506000041961669922e+00,1.065353216000000000e+09
-1.618999958038330078e+00,1.789999961853027344e+00,1.498999953269958496e+00,1.065353216000000000e+09
-1.667999982833862305e+00,1.669000029563903809e+00,1.508999943733215332e+00,1.065353216000000000e+09
-1.694000005722045898e+00,1.529999971389770508e+00,1.509999990463256836e+00,1.065353216000000000e+09
-1.715000033378601074e+00,1.378999948501586914e+00,1.504999995231628418e+00,1.065353216000000000e+09
-1.661000013351440430e+00,1.753999948501586914e+00,1.498999953269958496e+00,1.065353216000000000e+09
-1.692000031471252441e+00,1.618000030517578125e+00,1.498999953269958496e+00,1.065353216000000000e+09
-1.713000059127807617e+00,1.478999972343444824e+00,1.500000000000000000e+00,1.065353216000000000e+09
-1.725000023841857910e+00,1.322999954223632812e+00,1.491999983787536621e+00,1.065353216000000000e+09
-1.685999989509582520e+00,1.700000047683715820e+00,1.485000014305114746e+00,1.065353216000000000e+09
-1.715000033378601074e+00,1.565999984741210938e+00,1.488000035285949707e+00,1.065353216000000000e+09
-1.728999972343444824e+00,1.424000024795532227e+00,1.488000035285949707e+00,1.065353216000000000e+09
-1.741999983787536621e+00,1.274000048637390137e+00,1.485999941825866699e+00,1.065353216000000000e+09
-1.723000049591064453e+00,1.659999966621398926e+00,1.483000040054321289e+00,1.065353216000000000e+09
-1.736999988555908203e+00,1.514999985694885254e+00,1.478000044822692871e+00,1.065353216000000000e+09
-1.751000046730041504e+00,1.376999974250793457e+00,1.483000040054321289e+00,1.065353216000000000e+09
-1.753000020980834961e+00,1.222000002861022949e+00,1.478000044822692871e+00,1.065353216000000000e+09
-1.748999953269958496e+00,1.608999967575073242e+00,1.472000002861022949e+00,1.065353216000000000e+09
-1.758999943733215332e+00,1.465000033378601074e+00,1.468999981880187988e+00,1.065353216000000000e+09
-1.766999959945678711e+00,1.325999975204467773e+00,1.473000049591064453e+00,1.065353216000000000e+09
-1.759999990463256836e+00,1.167999982833862305e+00,1.465999960899353027e+00,1.065353216000000000e+09
-1.771000027656555176e+00,1.555999994277954102e+00,1.460000038146972656e+00,1.065353216000000000e+09
-1.774999976158142090e+00,1.411000013351440430e+00,1.455999970436096191e+00,1.065353216000000000e+09
-1.777999997138977051e+00,1.271000027656555176e+00,1.460999965667724609e+00,1.065353216000000000e+09
-1.776999950408935547e+00,1.121999979019165039e+00,1.463000059127807617e+00,1.065353216000000000e+09
-1.792999982833862305e+00,1.503999948501586914e+00,1.447999954223632812e+00,1.065353216000000000e+09
-1.794000029563903809e+00,1.360000014305114746e+00,1.447000026702880859e+00,1.065353216000000000e+09
-1.794000029563903809e+00,1.223000049591064453e+00,1.453999996185302734e+00,1.065353216000000000e+09
-1.789000034332275391e+00,1.074000000953674316e+00,1.457999944686889648e+00,1.065353216000000000e+09
-1.809999942779541016e+00,1.449000000953674316e+00,1.434000015258789062e+00,1.065353216000000000e+09
-1.815000057220458984e+00,1.312000036239624023e+00,1.440999984741210938e+00,1.065353216000000000e+09
-1.809999942779541016e+00,1.174000024795532227e+00,1.447999954223632812e+00,1.065353216000000000e+09
-1.799999952316284180e+00,1.024999976158142090e+00,1.452999949455261230e+00,1.065353216000000000e+09
-1.828999996185302734e+00,1.396000027656555176e+00,1.422000050544738770e+00,1.065353216000000000e+09
-1.830000042915344238e+00,1.259999990463256836e+00,1.430999994277954102e+00,1.065353216000000000e+09
-1.817999958992004395e+00,1.121999979019165039e+00,1.437000036239624023e+00,1.065353216000000000e+09
-1.812999963760375977e+00,9.789999723434448242e-01,1.450000047683715820e+00,1.065353216000000000e+09
-1.853999972343444824e+00,1.348000049591064453e+00,1.416000008583068848e+00,1.065353216000000000e+09
-1.853000044822692871e+00,1.213999986648559570e+00,1.427999973297119141e+00,1.065353216000000000e+09
-1.830999970436096191e+00,1.072999954223632812e+00,1.430999994277954102e+00,1.065353216000000000e+09
-1.827999949455261230e+00,9.350000023841857910e-01,1.449000000953674316e+00,1.065353216000000000e+09
-1.870000004768371582e+00,1.294999957084655762e+00,1.404999971389770508e+00,1.065353216000000000e+09
-1.861999988555908203e+00,1.159999966621398926e+00,1.416000008583068848e+00,1.065353216000000000e+09
-1.842000007629394531e+00,1.024999976158142090e+00,1.424000024795532227e+00,1.065353216000000000e+09
-1.835000038146972656e+00,8.870000243186950684e-01,1.444000005722045898e+00,1.065353216000000000e+09
-1.891999959945678711e+00,1.246999979019165039e+00,1.399000048637390137e+00,1.065353216000000000e+09
-1.883999943733215332e+00,1.115000009536743164e+00,1.414000034332275391e+00,1.065353216000000000e+09
-1.860000014305114746e+00,9.800000190734863281e-01,1.422999978065490723e+00,1.065353216000000000e+09
-1.847000002861022949e+00,8.420000076293945312e-01,1.442999958992004395e+00,1.065353216000000000e+09
-1.906999945640563965e+00,1.194000005722045898e+00,1.389000058174133301e+00,1.065353216000000000e+09
-1.886999964714050293e+00,1.059000015258789062e+00,1.399000048637390137e+00,1.065353216000000000e+09
-1.883999943733215332e+00,9.380000233650207520e-01,1.427999973297119141e+00,1.065353216000000000e+09
-1.845000028610229492e+00,7.919999957084655762e-01,1.432000041007995605e+00,1.065353216000000000e+09
-1.927999973297119141e+00,1.146000027656555176e+00,1.383999943733215332e+00,1.065353216000000000e+09
-1.907999992370605469e+00,1.014000058174133301e+00,1.398000001907348633e+00,1.065353216000000000e+09
-1.888000011444091797e+00,8.880000114440917969e-01,1.417999982833862305e+00,1.065353216000000000e+09
-1.853999972343444824e+00,7.469999790191650391e-01,1.429999947547912598e+00,1.065353216000000000e+09
-1.947000026702880859e+00,1.097000002861022949e+00,1.378999948501586914e+00,1.065353216000000000e+09
-1.912999987602233887e+00,9.610000252723693848e-01,1.386000037193298340e+00,1.065353216000000000e+09
-1.889000058174133301e+00,8.370000123977661133e-01,1.406999945640563965e+00,1.065353216000000000e+09
-1.863000035285949707e+00,7.020000219345092773e-01,1.429000020027160645e+00,1.065353216000000000e+09
-1.957000017166137695e+00,1.042999982833862305e+00,1.366999983787536621e+00,1.065353216000000000e+09
-1.930999994277954102e+00,9.150000214576721191e-01,1.384999990463256836e+00,1.065353216000000000e+09
-1.899000048637390137e+00,7.900000214576721191e-01,1.404000043869018555e+00,1.065353216000000000e+09
-1.871000051498413086e+00,6.579999923706054688e-01,1.427999973297119141e+00,1.065353216000000000e+09
-1.973999977111816406e+00,9.940000176429748535e-01,1.363000035285949707e+00,1.065353216000000000e+09
-1.942999958992004395e+00,8.669999837875366211e-01,1.379999995231628418e+00,1.065353216000000000e+09
-1.902999997138977051e+00,7.419999837875366211e-01,1.396999955177307129e+00,1.065353216000000000e+09
-1.878000020980834961e+00,6.140000224113464355e-01,1.427999973297119141e+00,1.065353216000000000e+09
-1.978000044822692871e+00,9.390000104904174805e-01,1.350000023841857910e+00,1.065353216000000000e+09
-1.949000000953674316e+00,8.169999718666076660e-01,1.373000025749206543e+00,1.065353216000000000e+09
-1.925999999046325684e+00,7.020000219345092773e-01,1.404999971389770508e+00,1.065353216000000000e+09
-1.879999995231628418e+00,5.690000057220458984e-01,1.424000024795532227e+00,1.065353216000000000e+09
-1.991999983787536621e+00,8.899999856948852539e-01,1.345000028610229492e+00,1.065353216000000000e+09
-1.963999986648559570e+00,7.710000276565551758e-01,1.371000051498413086e+00,1.065353216000000000e+09
-1.939000010490417480e+00,6.570000052452087402e-01,1.406000018119812012e+00,1.065353216000000000e+09
-1.883999943733215332e+00,5.249999761581420898e-01,1.422000050544738770e+00,1.065353216000000000e+09
-2.013000011444091797e+00,8.429999947547912598e-01,1.345000028610229492e+00,1.065353216000000000e+09
-1.983000040054321289e+00,7.260000109672546387e-01,1.375000000000000000e+00,1.065353216000000000e+09
-1.930999994277954102e+00,6.060000061988830566e-01,1.393000006675720215e+00,1.065353216000000000e+09
-1.888000011444091797e+00,4.810000061988830566e-01,1.421000003814697266e+00,1.065353216000000000e+09
-2.020999908447265625e+00,7.910000085830688477e-01,1.338000059127807617e+00,1.065353216000000000e+09
-1.986999988555908203e+00,6.759999990463256836e-01,1.366999983787536621e+00,1.065353216000000000e+09
-1.947000026702880859e+00,5.640000104904174805e-01,1.398000001907348633e+00,1.065353216000000000e+09
-1.901999950408935547e+00,4.399999976158142090e-01,1.427999973297119141e+00,1.065353216000000000e+09
-2.028000116348266602e+00,7.400000095367431641e-01,1.330999970436096191e+00,1.065353216000000000e+09
-1.993999958038330078e+00,6.280000209808349609e-01,1.363999962806701660e+00,1.065353216000000000e+09
-1.949000000953674316e+00,5.170000195503234863e-01,1.391999959945678711e+00,1.065353216000000000e+09
-1.902999997138977051e+00,3.959999978542327881e-01,1.425999999046325684e+00,1.065353216000000000e+09
-2.039999961853027344e+00,6.909999847412109375e-01,1.327999949455261230e+00,1.065353216000000000e+09
-1.995000004768371582e+00,5.780000090599060059e-01,1.355999946594238281e+00,1.065353216000000000e+09
-1.952000021934509277e+00,4.709999859333038330e-01,1.389999985694885254e+00,1.065353216000000000e+09
-1.902999997138977051e+00,3.529999852180480957e-01,1.424000024795532227e+00,1.065353216000000000e+09
-2.051000118255615234e+00,6.420000195503234863e-01,1.325000047683715820e+00,1.065353216000000000e+09
-2.007999897003173828e+00,5.320000052452087402e-01,1.356999993324279785e+00,1.065353216000000000e+09
-1.955999970436096191e+00,4.259999990463256836e-01,1.388000011444091797e+00,1.065353216000000000e+09
-1.894000053405761719e+00,3.079999983310699463e-01,1.416000008583068848e+00,1.065353216000000000e+09
-2.065000057220458984e+00,5.929999947547912598e-01,1.325000047683715820e+00,1.065353216000000000e+09
-2.009999990463256836e+00,4.839999973773956299e-01,1.351999998092651367e+00,1.065353216000000000e+09
-1.967000007629394531e+00,3.819999992847442627e-01,1.391999959945678711e+00,1.065353216000000000e+09
-1.893000006675720215e+00,2.649999856948852539e-01,1.414999961853027344e+00,1.065353216000000000e+09
-2.062999963760375977e+00,5.400000214576721191e-01,1.315000057220458984e+00,1.065353216000000000e+09
-2.017999887466430664e+00,4.370000064373016357e-01,1.351999998092651367e+00,1.065353216000000000e+09
-1.955999970436096191e+00,3.339999914169311523e-01,1.381000041961669922e+00,1.065353216000000000e+09
-1.899000048637390137e+00,2.240000069141387939e-01,1.419000029563903809e+00,1.065353216000000000e+09
-2.072999954223632812e+00,4.909999966621398926e-01,1.315000057220458984e+00,1.065353216000000000e+09
-2.016000032424926758e+00,3.880000114440917969e-01,1.345999956130981445e+00,1.065353216000000000e+09
-1.963000059127807617e+00,2.899999916553497314e-01,1.383999943733215332e+00,1.065353216000000000e+09
-1.909000039100646973e+00,1.829999983310699463e-01,1.427000045776367188e+00,1.065353216000000000e+09
-2.081000089645385742e+00,4.420000016689300537e-01,1.312999963760375977e+00,1.065353216000000000e+09
-2.025000095367431641e+00,3.420000076293945312e-01,1.348000049591064453e+00,1.065353216000000000e+09
-1.962000012397766113e+00,2.460000067949295044e-01,1.381999969482421875e+00,1.065353216000000000e+09
-1.894999980926513672e+00,1.400000005960464478e-01,1.417999982833862305e+00,1.065353216000000000e+09
-2.089999914169311523e+00,3.930000066757202148e-01,1.312999963760375977e+00,1.065353216000000000e+09
-2.029000043869018555e+00,2.949999868869781494e-01,1.347000002861022949e+00,1.065353216000000000e+09
-1.968000054359436035e+00,2.020000070333480835e-01,1.383999943733215332e+00,1.065353216000000000e+09
-1.902999997138977051e+00,9.899999946355819702e-02,1.425999999046325684e+00,1.065353216000000000e+09
-2.098000049591064453e+00,3.429999947547912598e-01,1.312999963760375977e+00,1.065353216000000000e+09
-2.026000022888183594e+00,2.469999939203262329e-01,1.343000054359436035e+00,1.065353216000000000e+09
-1.970000028610229492e+00,1.570000052452087402e-01,1.386000037193298340e+00,1.065353216000000000e+09
-1.902999997138977051e+00,5.799999833106994629e-02,1.427000045776367188e+00,1.065353216000000000e+09
-2.092999935150146484e+00,2.919999957084655762e-01,1.305999994277954102e+00,1.065353216000000000e+09
-2.023000001907348633e+00,1.990000009536743164e-01,1.338999986648559570e+00,1.065353216000000000e+09
-1.970999956130981445e+00,1.129999980330467224e-01,1.386999964714050293e+00,1.065353216000000000e+09
-1.904000043869018555e+00,1.600000075995922089e-02,1.432000041007995605e+00,1.065353216000000000e+09
-2.098000049591064453e+00,2.419999986886978149e-01,1.305999994277954102e+00,1.065353216000000000e+09
-2.026999950408935547e+00,1.529999971389770508e-01,1.340999960899353027e+00,1.065353216000000000e+09
-1.970999956130981445e+00,6.899999827146530151e-02,1.388000011444091797e+00,1.065353216000000000e+09
-1.894999980926513672e+00,-2.400000020861625671e-02,1.427999973297119141e+00,1.065353216000000000e+09
-2.105999946594238281e+00,1.930000036954879761e-01,1.307999968528747559e+00,1.065353216000000000e+09
-2.039000034332275391e+00,1.059999987483024597e-01,1.348999977111816406e+00,1.065353216000000000e+09
-1.965999960899353027e+00,2.500000037252902985e-02,1.386999964714050293e+00,1.065353216000000000e+09
-1.893000006675720215e+00,-6.499999761581420898e-02,1.430999994277954102e+00,1.065353216000000000e+09
-2.105000019073486328e+00,1.430000066757202148e-01,1.305999994277954102e+00,1.065353216000000000e+09
-2.030999898910522461e+00,5.900000035762786865e-02,1.343000054359436035e+00,1.065353216000000000e+09
-1.965999960899353027e+00,-1.799999922513961792e-02,1.389000058174133301e+00,1.065353216000000000e+09
-1.891000032424926758e+00,-1.059999987483024597e-01,1.434000015258789062e+00,1.065353216000000000e+09
-2.111000061035156250e+00,9.300000220537185669e-02,1.309000015258789062e+00,1.065353216000000000e+09
-2.026000022888183594e+00,1.300000026822090149e-02,1.340999960899353027e+00,1.065353216000000000e+09
-1.963999986648559570e+00,-6.199999898672103882e-02,1.389999985694885254e+00,1.065353216000000000e+09
-1.891000032424926758e+00,-1.469999998807907104e-01,1.440000057220458984e+00,1.065353216000000000e+09
-2.102999925613403320e+00,4.300000146031379700e-02,1.302999973297119141e+00,1.065353216000000000e+09
-2.029999971389770508e+00,-3.299999982118606567e-02,1.345000028610229492e+00,1.065353216000000000e+09
-1.970999956130981445e+00,-1.059999987483024597e-01,1.399000048637390137e+00,1.065353216000000000e+09
-1.881999969482421875e+00,-1.870000064373016357e-01,1.439000010490417480e+00,1.065353216000000000e+09
-2.111999988555908203e+00,-6.000000052154064178e-03,1.309999942779541016e+00,1.065353216000000000e+09
-2.032000064849853516e+00,-7.999999821186065674e-02,1.348999977111816406e+00,1.065353216000000000e+09
-1.963999986648559570e+00,-1.500000059604644775e-01,1.398000001907348633e+00,1.065353216000000000e+09
-1.883000016212463379e+00,-2.280000001192092896e-01,1.445999979972839355e+00,1.065353216000000000e+09
-2.109999895095825195e+00,-5.600000172853469849e-02,1.309999942779541016e+00,1.065353216000000000e+09
-2.030999898910522461e+00,-1.270000040531158447e-01,1.351999998092651367e+00,1.065353216000000000e+09
-1.955999970436096191e+00,-1.930000036954879761e-01,1.396999955177307129e+00,1.065353216000000000e+09
-1.878999948501586914e+00,-2.680000066757202148e-01,1.450000047683715820e+00,1.065353216000000000e+09
-2.109999895095825195e+00,-1.059999987483024597e-01,1.312999963760375977e+00,1.065353216000000000e+09
-2.029000043869018555e+00,-1.739999949932098389e-01,1.355000019073486328e+00,1.065353216000000000e+09
-1.952000021934509277e+00,-2.370000034570693970e-01,1.401000022888183594e+00,1.065353216000000000e+09
-1.873000025749206543e+00,-3.089999854564666748e-01,1.452999949455261230e+00,1.065353216000000000e+09
-2.102999925613403320e+00,-1.560000032186508179e-01,1.310999989509582520e+00,1.065353216000000000e+09
-2.029000043869018555e+00,-2.210000008344650269e-01,1.360000014305114746e+00,1.065353216000000000e+09
-1.949000000953674316e+00,-2.800000011920928955e-01,1.404000043869018555e+00,1.065353216000000000e+09
-1.861999988555908203e+00,-3.479999899864196777e-01,1.452999949455261230e+00,1.065353216000000000e+09
-2.107000112533569336e+00,-2.070000022649765015e-01,1.317000031471252441e+00,1.065353216000000000e+09
-2.017999887466430664e+00,-2.669999897480010986e-01,1.358000040054321289e+00,1.065353216000000000e+09
