x,y,z,intensity
6.250000000000000000e-01,-1.866999983787536621e+00,1.949000000953674316e+00,1.065353216000000000e+09
6.110000014305114746e-01,-1.950999975204467773e+00,1.950000047683715820e+00,1.065353216000000000e+09
5.950000286102294922e-01,-2.043999910354614258e+00,1.957000017166137695e+00,1.065353216000000000e+09
6.690000295639038086e-01,-1.758999943733215332e+00,1.949000000953674316e+00,1.065353216000000000e+09
6.660000085830688477e-01,-1.853000044822692871e+00,1.950000047683715820e+00,1.065353216000000000e+09
6.549999713897705078e-01,-1.935999989509582520e+00,1.945999979972839355e+00,1.065353216000000000e+09
6.449999809265136719e-01,-2.036000013351440430e+00,1.955999970436096191e+00,1.065353216000000000e+09
7.030000090599060059e-01,-1.738000035285949707e+00,1.945999979972839355e+00,1.065353216000000000e+09
7.059999704360961914e-01,-1.838000059127807617e+00,1.949000000953674316e+00,1.065353216000000000e+09
7.020000219345092773e-01,-1.927999973297119141e+00,1.949000000953674316e+00,1.065353216000000000e+09
6.949999928474426270e-01,-2.026999950408935547e+00,1.957000017166137695e+00,1.065353216000000000e+09
7.400000095367431641e-01,-1.725000023841857910e+00,1.950999975204467773e+00,1.065353216000000000e+09
7.459999918937683105e-01,-1.820999979972839355e+00,1.947999954223632812e+00,1.065353216000000000e+09
7.450000047683715820e-01,-1.911999940872192383e+00,1.947000026702880859e+00,1.065353216000000000e+09
7.450000047683715820e-01,-2.016999959945678711e+00,1.957000017166137695e+00,1.065353216000000000e+09
7.760000228881835938e-01,-1.707999944686889648e+00,1.952999949455261230e+00,1.065353216000000000e+09
7.860000133514404297e-01,-1.804000020027160645e+00,1.947999954223632812e+00,1.065353216000000000e+09
7.910000085830688477e-01,-1.899999976158142090e+00,1.950000047683715820e+00,1.065353216000000000e+09
7.950000166893005371e-01,-2.005000114440917969e+00,1.955999970436096191e+00,1.065353216000000000e+09
8.109999895095825195e-01,-1.690000057220458984e+00,1.955000042915344238e+00,1.065353216000000000e+09
8.249999880790710449e-01,-1.784999966621398926e+00,1.947000026702880859e+00,1.065353216000000000e+09
8.349999785423278809e-01,-1.883000016212463379e+00,1.947000026702880859e+00,1.065353216000000000e+09
8.420000076293945312e-01,-1.985999941825866699e+00,1.950000047683715820e+00,1.065353216000000000e+09
8.439999818801879883e-01,-1.667000055313110352e+00,1.952000021934509277e+00,1.065353216000000000e+09
8.650000095367431641e-01,-1.769999980926513672e+00,1.950000047683715820e+00,1.065353216000000000e+09
8.780000209808349609e-01,-1.865000009536743164e+00,1.945999979972839355e+00,1.065353216000000000e+09
8.920000195503234863e-01,-1.970999956130981445e+00,1.950000047683715820e+00,1.065353216000000000e+09
8.780000209808349609e-01,-1.649000048637390137e+00,1.953999996185302734e+00,1.065353216000000000e+09
9.039999842643737793e-01,-1.750000000000000000e+00,1.949000000953674316e+00,1.065353216000000000e+09
9.210000038146972656e-01,-1.845999956130981445e+00,1.944000005722045898e+00,1.065353216000000000e+09
9.419999718666076660e-01,-1.957999944686889648e+00,1.952000021934509277e+00,1.065353216000000000e+09
9.079999923706054688e-01,-1.621999979019165039e+00,1.947000026702880859e+00,1.065353216000000000e+09
9.399999976158142090e-01,-1.726999998092651367e+00,1.945999979972839355e+00,1.065353216000000000e+09
9.649999737739562988e-01,-1.828999996185302734e+00,1.945999979972839355e+00,1.065353216000000000e+09
9.919999837875366211e-01,-1.942999958992004395e+00,1.953999996185302734e+00,1.065353216000000000e+09
9.399999976158142090e-01,-1.598999977111816406e+00,1.945999979972839355e+00,1.065353216000000000e+09
9.800000190734863281e-01,-1.710000038146972656e+00,1.950000047683715820e+00,1.065353216000000000e+09
1.008000016212463379e+00,-1.809000015258789062e+00,1.945000052452087402e+00,1.065353216000000000e+09
1.041000008583068848e+00,-1.924000024795532227e+00,1.952999949455261230e+00,1.065353216000000000e+09
9.739999771118164062e-01,-1.580999970436096191e+00,1.952000021934509277e+00,1.065353216000000000e+09
1.016999959945678711e+00,-1.687999963760375977e+00,1.950000047683715820e+00,1.065353216000000000e+09
1.047999978065490723e+00,-1.784000039100646973e+00,1.940999984741210938e+00,1.065353216000000000e+09
1.088000059127807617e+00,-1.902999997138977051e+00,1.950999975204467773e+00,1.065353216000000000e+09
1.004999995231628418e+00,-1.555999994277954102e+00,1.949000000953674316e+00,1.065353216000000000e+09
1.052999973297119141e+00,-1.662999987602233887e+00,1.947000026702880859e+00,1.065353216000000000e+09
1.090999960899353027e+00,-1.764000058174133301e+00,1.942000031471252441e+00,1.065353216000000000e+09
1.134999990463256836e+00,-1.878999948501586914e+00,1.947999954223632812e+00,1.065353216000000000e+09
1.034999966621398926e+00,-1.531999945640563965e+00,1.947999954223632812e+00,1.065353216000000000e+09
1.090000033378601074e+00,-1.641000032424926758e+00,1.947999954223632812e+00,1.065353216000000000e+09
1.133000016212463379e+00,-1.741999983787536621e+00,1.942999958992004395e+00,1.065353216000000000e+09
1.184000015258789062e+00,-1.858999967575073242e+00,1.950000047683715820e+00,1.065353216000000000e+09
1.067000031471252441e+00,-1.509999990463256836e+00,1.950000047683715820e+00,1.065353216000000000e+09
1.123999953269958496e+00,-1.615000009536743164e+00,1.945999979972839355e+00,1.065353216000000000e+09
1.172999978065490723e+00,-1.715999960899353027e+00,1.940000057220458984e+00,1.065353216000000000e+09
1.233000040054321289e+00,-1.838999986648559570e+00,1.953999996185302734e+00,1.065353216000000000e+09
1.097000002861022949e+00,-1.485000014305114746e+00,1.950000047683715820e+00,1.065353216000000000e+09
1.159000039100646973e+00,-1.590000033378601074e+00,1.945000052452087402e+00,1.065353216000000000e+09
1.215000033378601074e+00,-1.692000031471252441e+00,1.940999984741210938e+00,1.065353216000000000e+09
1.279000043869018555e+00,-1.812999963760375977e+00,1.952000021934509277e+00,1.065353216000000000e+09
1.123000025749206543e+00,-1.457000017166137695e+00,1.945000052452087402e+00,1.065353216000000000e+09
1.194000005722045898e+00,-1.564000010490417480e+00,1.945000052452087402e+00,1.065353216000000000e+09
1.253000020980834961e+00,-1.664000034332275391e+00,1.939000010490417480e+00,1.065353216000000000e+09
1.320999979972839355e+00,-1.781999945640563965e+00,1.945999979972839355e+00,1.065353216000000000e+09
1.151999950408935547e+00,-1.430999994277954102e+00,1.945999979972839355e+00,1.065353216000000000e+09
1.230000019073486328e+00,-1.539000034332275391e+00,1.947000026702880859e+00,1.065353216000000000e+09
1.289999961853027344e+00,-1.634999990463256836e+00,1.935999989509582520e+00,1.065353216000000000e+09
1.368999958038330078e+00,-1.756999969482421875e+00,1.949000000953674316e+00,1.065353216000000000e+09
1.179000020027160645e+00,-1.404000043869018555e+00,1.942999958992004395e+00,1.065353216000000000e+09
1.261000037193298340e+00,-1.508999943733215332e+00,1.942999958992004395e+00,1.065353216000000000e+09
1.340000033378601074e+00,-1.620000004768371582e+00,1.950999975204467773e+00,1.065353216000000000e+09
1.414000034332275391e+00,-1.728999972343444824e+00,1.949000000953674316e+00,1.065353216000000000e+09
1.207000017166137695e+00,-1.378000020980834961e+00,1.944000005722045898e+00,1.065353216000000000e+09
1.296000003814697266e+00,-1.483999967575073242e+00,1.945999979972839355e+00,1.065353216000000000e+09
1.376000046730041504e+00,-1.587000012397766113e+00,1.947000026702880859e+00,1.065353216000000000e+09
1.455999970436096191e+00,-1.695999979972839355e+00,1.945000052452087402e+00,1.065353216000000000e+09
1.235000014305114746e+00,-1.351999998092651367e+00,1.945000052452087402e+00,1.065353216000000000e+09
1.327000021934509277e+00,-1.453999996185302734e+00,1.944000005722045898e+00,1.065353216000000000e+09
1.412999987602233887e+00,-1.557000041007995605e+00,1.945000052452087402e+00,1.065353216000000000e+09
1.501000046730041504e+00,-1.666000008583068848e+00,1.947000026702880859e+00,1.065353216000000000e+09
1.261999964714050293e+00,-1.325000047683715820e+00,1.945999979972839355e+00,1.065353216000000000e+09
1.358999967575073242e+00,-1.424999952316284180e+00,1.944000005722045898e+00,1.065353216000000000e+09
1.452000021934509277e+00,-1.527999997138977051e+00,1.947999954223632812e+00,1.065353216000000000e+09
1.539999961853027344e+00,-1.629999995231628418e+00,1.942999958992004395e+00,1.065353216000000000e+09
1.286000013351440430e+00,-1.294999957084655762e+00,1.942000031471252441e+00,1.065353216000000000e+09
1.388000011444091797e+00,-1.391999959945678711e+00,1.940000057220458984e+00,1.065353216000000000e+09
1.488000035285949707e+00,-1.495000004768371582e+00,1.947000026702880859e+00,1.065353216000000000e+09
1.582999944686889648e+00,-1.597000002861022949e+00,1.942999958992004395e+00,1.065353216000000000e+09
1.315000057220458984e+00,-1.269999980926513672e+00,1.947000026702880859e+00,1.065353216000000000e+09
1.419999957084655762e+00,-1.363999962806701660e+00,1.942999958992004395e+00,1.065353216000000000e+09
1.521999955177307129e+00,-1.460999965667724609e+00,1.944000005722045898e+00,1.065353216000000000e+09
1.623999953269958496e+00,-1.562000036239624023e+00,1.942000031471252441e+00,1.065353216000000000e+09
1.337000012397766113e+00,-1.238000035285949707e+00,1.942000031471252441e+00,1.065353216000000000e+09
1.450999975204467773e+00,-1.332999944686889648e+00,1.942999958992004395e+00,1.065353216000000000e+09
1.557000041007995605e+00,-1.427999973297119141e+00,1.944000005722045898e+00,1.065353216000000000e+09
1.666000008583068848e+00,-1.527999997138977051e+00,1.944000005722045898e+00,1.065353216000000000e+09
1.360999941825866699e+00,-1.207999944686889648e+00,1.940999984741210938e+00,1.065353216000000000e+09
1.480000019073486328e+00,-1.300999999046325684e+00,1.942999958992004395e+00,1.065353216000000000e+09
1.590999960899353027e+00,-1.393000006675720215e+00,1.944000005722045898e+00,1.065353216000000000e+09
1.702000021934509277e+00,-1.488000035285949707e+00,1.940000057220458984e+00,1.065353216000000000e+09
1.384999990463256836e+00,-1.179000020027160645e+00,1.942000031471252441e+00,1.065353216000000000e+09
1.508000016212463379e+00,-1.268000006675720215e+00,1.942999958992004395e+00,1.065353216000000000e+09
1.623999953269958496e+00,-1.358000040054321289e+00,1.944000005722045898e+00,1.065353216000000000e+09
1.741999983787536621e+00,-1.450999975204467773e+00,1.940999984741210938e+00,1.065353216000000000e+09
1.409000039100646973e+00,-1.149999976158142090e+00,1.942999958992004395e+00,1.065353216000000000e+09
1.536000013351440430e+00,-1.235000014305114746e+00,1.942000031471252441e+00,1.065353216000000000e+09
1.659000039100646973e+00,-1.322999954223632812e+00,1.945999979972839355e+00,1.065353216000000000e+09
1.777999997138977051e+00,-1.411000013351440430e+00,1.939000010490417480e+00,1.065353216000000000e+09
1.432000041007995605e+00,-1.118999958038330078e+00,1.942000031471252441e+00,1.065353216000000000e+09
1.565000057220458984e+00,-1.202000021934509277e+00,1.944000005722045898e+00,1.065353216000000000e+09
1.687000036239624023e+00,-1.282999992370605469e+00,1.940000057220458984e+00,1.065353216000000000e+09
1.810999989509582520e+00,-1.368000030517578125e+00,1.934000015258789062e+00,1.065353216000000000e+09
1.455000042915344238e+00,-1.088999986648559570e+00,1.942999958992004395e+00,1.065353216000000000e+09
1.587000012397766113e+00,-1.164000034332275391e+00,1.937999963760375977e+00,1.065353216000000000e+09
1.718999981880187988e+00,-1.246000051498413086e+00,1.942000031471252441e+00,1.065353216000000000e+09
1.848999977111816406e+00,-1.327999949455261230e+00,1.935999989509582520e+00,1.065353216000000000e+09
1.475999951362609863e+00,-1.057999968528747559e+00,1.942999958992004395e+00,1.065353216000000000e+09
1.608000040054321289e+00,-1.126000046730041504e+00,1.932999968528747559e+00,1.065353216000000000e+09
1.751999974250793457e+00,-1.210000038146972656e+00,1.945000052452087402e+00,1.065353216000000000e+09
1.886000037193298340e+00,-1.287999987602233887e+00,1.939000010490417480e+00,1.065353216000000000e+09
1.496000051498413086e+00,-1.026000022888183594e+00,1.940999984741210938e+00,1.065353216000000000e+09
1.639000058174133301e+00,-1.095999956130981445e+00,1.940000057220458984e+00,1.065353216000000000e+09
1.774000048637390137e+00,-1.166000008583068848e+00,1.937000036239624023e+00,1.065353216000000000e+09
1.917000055313110352e+00,-1.243000030517578125e+00,1.935999989509582520e+00,1.065353216000000000e+09
1.516999959945678711e+00,-9.940000176429748535e-01,1.942000031471252441e+00,1.065353216000000000e+09
1.662999987602233887e+00,-1.059000015258789062e+00,1.940000057220458984e+00,1.065353216000000000e+09
1.804000020027160645e+00,-1.126999974250793457e+00,1.939000010490417480e+00,1.065353216000000000e+09
1.949000000953674316e+00,-1.197999954223632812e+00,1.934999942779541016e+00,1.065353216000000000e+09
1.539000034332275391e+00,-9.629999995231628418e-01,1.942999958992004395e+00,1.065353216000000000e+09
1.687000036239624023e+00,-1.023000001907348633e+00,1.940000057220458984e+00,1.065353216000000000e+09
1.830000042915344238e+00,-1.085999965667724609e+00,1.937999963760375977e+00,1.065353216000000000e+09
1.978999972343444824e+00,-1.152999997138977051e+00,1.932999968528747559e+00,1.065353216000000000e+09
1.555999994277954102e+00,-9.290000200271606445e-01,1.940999984741210938e+00,1.065353216000000000e+09
1.710999965667724609e+00,-9.869999885559082031e-01,1.940999984741210938e+00,1.065353216000000000e+09
1.858000040054321289e+00,-1.044999957084655762e+00,1.939000010490417480e+00,1.065353216000000000e+09
2.010999917984008789e+00,-1.108000040054321289e+00,1.934999942779541016e+00,1.065353216000000000e+09
1.575999975204467773e+00,-8.970000147819519043e-01,1.942000031471252441e+00,1.065353216000000000e+09
1.730999946594238281e+00,-9.480000138282775879e-01,1.939000010490417480e+00,1.065353216000000000e+09
1.879999995231628418e+00,-1.001999974250793457e+00,1.934999942779541016e+00,1.065353216000000000e+09
2.038000106811523438e+00,-1.059999942779541016e+00,1.932999968528747559e+00,1.065353216000000000e+09
1.593999981880187988e+00,-8.629999756813049316e-01,1.942000031471252441e+00,1.065353216000000000e+09
1.748999953269958496e+00,-9.089999794960021973e-01,1.934999942779541016e+00,1.065353216000000000e+09
1.906000018119812012e+00,-9.599999785423278809e-01,1.937000036239624023e+00,1.065353216000000000e+09
2.068000078201293945e+00,-1.014000058174133301e+00,1.934999942779541016e+00,1.065353216000000000e+09
1.610999941825866699e+00,-8.289999961853027344e-01,1.940999984741210938e+00,1.065353216000000000e+09
1.771000027656555176e+00,-8.709999918937683105e-01,1.937999963760375977e+00,1.065353216000000000e+09
1.925999999046325684e+00,-9.150000214576721191e-01,1.932999968528747559e+00,1.065353216000000000e+09
2.088999986648559570e+00,-9.629999995231628418e-01,1.929000020027160645e+00,1.065353216000000000e+09
1.628000020980834961e+00,-7.950000166893005371e-01,1.940999984741210938e+00,1.065353216000000000e+09
1.789000034332275391e+00,-8.320000171661376953e-01,1.935999989509582520e+00,1.065353216000000000e+09
1.947000026702880859e+00,-8.709999918937683105e-01,1.932000041007995605e+00,1.065353216000000000e+09
2.117000102996826172e+00,-9.150000214576721191e-01,1.930999994277954102e+00,1.065353216000000000e+09
1.644999980926513672e+00,-7.620000243186950684e-01,1.942000031471252441e+00,1.065353216000000000e+09
1.809000015258789062e+00,-7.929999828338623047e-01,1.937000036239624023e+00,1.065353216000000000e+09
1.968000054359436035e+00,-8.270000219345092773e-01,1.932000041007995605e+00,1.065353216000000000e+09
2.141000032424926758e+00,-8.659999966621398926e-01,1.932000041007995605e+00,1.065353216000000000e+09
1.659000039100646973e+00,-7.260000109672546387e-01,1.939000010490417480e+00,1.065353216000000000e+09
1.825999975204467773e+00,-7.530000209808349609e-01,1.935999989509582520e+00,1.065353216000000000e+09
1.991999983787536621e+00,-7.829999923706054688e-01,1.934999942779541016e+00,1.065353216000000000e+09
2.160000085830688477e+00,-8.140000104904174805e-01,1.927999973297119141e+00,1.065353216000000000e+09
1.674000024795532227e+00,-6.909999847412109375e-01,1.939000010490417480e+00,1.065353216000000000e+09
1.838999986648559570e+00,-7.110000252723693848e-01,1.930999994277954102e+00,1.065353216000000000e+09
2.006000041961669922e+00,-7.360000014305114746e-01,1.929999947547912598e+00,1.065353216000000000e+09
2.186000108718872070e+00,-7.649999856948852539e-01,1.932000041007995605e+00,1.065353216000000000e+09
1.684999942779541016e+00,-6.549999713897705078e-01,1.934999942779541016e+00,1.065353216000000000e+09
1.855999946594238281e+00,-6.710000038146972656e-01,1.930999994277954102e+00,1.065353216000000000e+09
2.026000022888183594e+00,-6.909999847412109375e-01,1.930999994277954102e+00,1.065353216000000000e+09
2.206000089645385742e+00,-7.129999995231628418e-01,1.930999994277954102e+00,1.065353216000000000e+09
1.699000000953674316e+00,-6.190000176429748535e-01,1.934999942779541016e+00,1.065353216000000000e+09
1.871999979019165039e+00,-6.299999952316284180e-01,1.932000041007995605e+00,1.065353216000000000e+09
2.042000055313110352e+00,-6.439999938011169434e-01,1.929999947547912598e+00,1.065353216000000000e+09
2.219000101089477539e+00,-6.600000262260437012e-01,1.927000045776367188e+00,1.065353216000000000e+09
1.710999965667724609e+00,-5.830000042915344238e-01,1.934000015258789062e+00,1.065353216000000000e+09
1.886000037193298340e+00,-5.889999866485595703e-01,1.932000041007995605e+00,1.065353216000000000e+09
2.055000066757202148e+00,-5.970000028610229492e-01,1.927999973297119141e+00,1.065353216000000000e+09
2.236000061035156250e+00,-6.069999933242797852e-01,1.924999952316284180e+00,1.065353216000000000e+09
1.723000049591064453e+00,-5.469999909400939941e-01,1.932999968528747559e+00,1.065353216000000000e+09
1.894999980926513672e+00,-5.469999909400939941e-01,1.927999973297119141e+00,1.065353216000000000e+09
2.069999933242797852e+00,-5.500000119209289551e-01,1.927000045776367188e+00,1.065353216000000000e+09
2.253000020980834961e+00,-5.550000071525573730e-01,1.927000045776367188e+00,1.065353216000000000e+09
1.735999941825866699e+00,-5.120000243186950684e-01,1.934000015258789062e+00,1.065353216000000000e+09
1.907999992370605469e+00,-5.049999952316284180e-01,1.927000045776367188e+00,1.065353216000000000e+09
2.084000110626220703e+00,-5.030000209808349609e-01,1.927999973297119141e+00,1.065353216000000000e+09
2.266000032424926758e+00,-5.009999871253967285e-01,1.924999952316284180e+00,1.065353216000000000e+09
1.753000020980834961e+00,-4.769999980926513672e-01,1.940999984741210938e+00,1.065353216000000000e+09
1.919999957084655762e+00,-4.629999995231628418e-01,1.927000045776367188e+00,1.065353216000000000e+09
2.092999935150146484e+00,-4.539999961853027344e-01,1.924000024795532227e+00,1.065353216000000000e+09
2.278000116348266602e+00,-4.460000097751617432e-01,1.922999978065490723e+00,1.065353216000000000e+09
1.756000041961669922e+00,-4.379999935626983643e-01,1.932000041007995605e+00,1.065353216000000000e+09
1.927999973297119141e+00,-4.199999868869781494e-01,1.924000024795532227e+00,1.065353216000000000e+09
2.101000070571899414e+00,-4.059999883174896240e-01,1.922000050544738770e+00,1.065353216000000000e+09
2.289000034332275391e+00,-3.919999897480010986e-01,1.922999978065490723e+00,1.065353216000000000e+09
1.761999964714050293e+00,-4.000000059604644775e-01,1.927000045776367188e+00,1.065353216000000000e+09
1.937999963760375977e+00,-3.770000040531158447e-01,1.924000024795532227e+00,1.065353216000000000e+09
2.115000009536743164e+00,-3.580000102519989014e-01,1.924999952316284180e+00,1.065353216000000000e+09
2.293999910354614258e+00,-3.370000123977661133e-01,1.917999982833862305e+00,1.065353216000000000e+09
1.773000001907348633e+00,-3.630000054836273193e-01,1.929000020027160645e+00,1.065353216000000000e+09
1.949000000953674316e+00,-3.350000083446502686e-01,1.925999999046325684e+00,1.065353216000000000e+09
2.121999979019165039e+00,-3.089999854564666748e-01,1.922999978065490723e+00,1.065353216000000000e+09
2.308000087738037109e+00,-2.829999923706054688e-01,1.922999978065490723e+00,1.065353216000000000e+09
1.782999992370605469e+00,-3.260000050067901611e-01,1.929999947547912598e+00,1.065353216000000000e+09
1.953999996185302734e+00,-2.919999957084655762e-01,1.922999978065490723e+00,1.065353216000000000e+09
2.131000041961669922e+00,-2.610000073909759521e-01,1.924000024795532227e+00,1.065353216000000000e+09
2.312000036239624023e+00,-2.280000001192092896e-01,1.919000029563903809e+00,1.065353216000000000e+09
1.791000008583068848e+00,-2.879999876022338867e-01,1.929999947547912598e+00,1.065353216000000000e+09
1.963000059127807617e+00,-2.489999979734420776e-01,1.924000024795532227e+00,1.065353216000000000e+09
2.134000062942504883e+00,-2.119999974966049194e-01,1.919999957084655762e+00,1.065353216000000000e+09
2.315000057220458984e+00,-1.729999929666519165e-01,1.917000055313110352e+00,1.065353216000000000e+09
1.797000050544738770e+00,-2.509999871253967285e-01,1.927999973297119141e+00,1.065353216000000000e+09
1.968000054359436035e+00,-2.049999982118606567e-01,1.922999978065490723e+00,1.065353216000000000e+09
2.132999897003173828e+00,-1.620000004768371582e-01,1.914999961853027344e+00,1.065353216000000000e+09
2.321000099182128906e+00,-1.180000007152557373e-01,1.917999982833862305e+00,1.065353216000000000e+09
1.804000020027160645e+00,-2.129999995231628418e-01,1.927999973297119141e+00,1.065353216000000000e+09
1.973000049591064453e+00,-1.609999984502792358e-01,1.922000050544738770e+00,1.065353216000000000e+09
2.140000104904174805e+00,-1.129999980330467224e-01,1.917000055313110352e+00,1.065353216000000000e+09
2.323999881744384766e+00,-6.300000101327896118e-02,1.917999982833862305e+00,1.065353216000000000e+09
1.805999994277954102e+00,-1.739999949932098389e-01,1.924999952316284180e+00,1.065353216000000000e+09
1.978000044822692871e+00,-1.180000007152557373e-01,1.922999978065490723e+00,1.065353216000000000e+09
2.145999908447265625e+00,-6.400000303983688354e-02,1.919000029563903809e+00,1.065353216000000000e+09
2.319000005722045898e+00,-8.000000379979610443e-03,1.912999987602233887e+00,1.065353216000000000e+09
1.812000036239624023e+00,-1.360000073909759521e-01,1.924999952316284180e+00,1.065353216000000000e+09
1.978000044822692871e+00,-7.400000095367431641e-02,1.919000029563903809e+00,1.065353216000000000e+09
2.141000032424926758e+00,-1.499999966472387314e-02,1.912999987602233887e+00,1.065353216000000000e+09
2.318000078201293945e+00,4.600000008940696716e-02,1.911000013351440430e+00,1.065353216000000000e+09
1.819000005722045898e+00,-9.799999743700027466e-02,1.927000045776367188e+00,1.065353216000000000e+09
1.981999993324279785e+00,-2.999999932944774628e-02,1.919999957084655762e+00,1.065353216000000000e+09
2.150000095367431641e+00,3.299999982118606567e-02,1.919999957084655762e+00,1.065353216000000000e+09
2.319000005722045898e+00,1.010000035166740417e-01,1.912999987602233887e+00,1.065353216000000000e+09
1.819000005722045898e+00,-5.900000035762786865e-02,1.922999978065490723e+00,1.065353216000000000e+09
1.985999941825866699e+00,1.300000026822090149e-02,1.922000050544738770e+00,1.065353216000000000e+09
2.144000053405761719e+00,8.200000226497650146e-02,1.914999961853027344e+00,1.065353216000000000e+09
2.315000057220458984e+00,1.560000032186508179e-01,1.911999940872192383e+00,1.065353216000000000e+09
1.825000047683715820e+00,-1.999999955296516418e-02,1.925999999046325684e+00,1.065353216000000000e+09
1.985000014305114746e+00,5.700000002980232239e-02,1.919999957084655762e+00,1.065353216000000000e+09
2.144999980926513672e+00,1.319999992847442627e-01,1.917000055313110352e+00,1.065353216000000000e+09
2.306999921798706055e+00,2.099999934434890747e-01,1.909000039100646973e+00,1.065353216000000000e+09
1.825999975204467773e+00,1.799999922513961792e-02,1.924999952316284180e+00,1.065353216000000000e+09
1.985000014305114746e+00,1.010000035166740417e-01,1.921000003814697266e+00,1.065353216000000000e+09
2.141000032424926758e+00,1.809999942779541016e-01,1.916000008583068848e+00,1.065353216000000000e+09
2.302000045776367188e+00,2.649999856948852539e-01,1.909000039100646973e+00,1.065353216000000000e+09
1.822999954223632812e+00,5.700000002980232239e-02,1.919999957084655762e+00,1.065353216000000000e+09
1.981999993324279785e+00,1.449999958276748657e-01,1.917999982833862305e+00,1.065353216000000000e+09
2.135999917984008789e+00,2.290000021457672119e-01,1.914000034332275391e+00,1.065353216000000000e+09
2.286000013351440430e+00,3.179999887943267822e-01,1.901000022888183594e+00,1.065353216000000000e+09
1.827000021934509277e+00,9.700000286102294922e-02,1.922000050544738770e+00,1.065353216000000000e+09
1.975999951362609863e+00,1.879999935626983643e-01,1.914000034332275391e+00,1.065353216000000000e+09
2.128999948501586914e+00,2.779999971389770508e-01,1.912999987602233887e+00,1.065353216000000000e+09
2.280999898910522461e+00,3.720000088214874268e-01,1.904999971389770508e+00,1.065353216000000000e+09
1.825999975204467773e+00,1.360000073909759521e-01,1.921000003814697266e+00,1.065353216000000000e+09
1.975000023841857910e+00,2.329999953508377075e-01,1.917000055313110352e+00,1.065353216000000000e+09
2.128000020980834961e+00,3.280000090599060059e-01,1.917000055313110352e+00,1.065353216000000000e+09
2.269999980926513672e+00,4.250000119209289551e-01,1.902999997138977051e+00,1.065353216000000000e+09
1.825000047683715820e+00,1.749999970197677612e-01,1.919999957084655762e+00,1.065353216000000000e+09
1.970999956130981445e+00,2.770000100135803223e-01,1.916000008583068848e+00,1.065353216000000000e+09
2.115999937057495117e+00,3.759999871253967285e-01,1.912999987602233887e+00,1.065353216000000000e+09
2.256999969482421875e+00,4.790000021457672119e-01,1.901999950408935547e+00,1.065353216000000000e+09
1.822000026702880859e+00,2.150000035762786865e-01,1.917999982833862305e+00,1.065353216000000000e+09
1.965999960899353027e+00,3.210000097751617432e-01,1.916000008583068848e+00,1.065353216000000000e+09
2.105999946594238281e+00,4.239999949932098389e-01,1.911999940872192383e+00,1.065353216000000000e+09
2.243999958038330078e+00,5.310000181198120117e-01,1.901000022888183594e+00,1.065353216000000000e+09
1.824000000953674316e+00,2.549999952316284180e-01,1.922000050544738770e+00,1.065353216000000000e+09
1.960000038146972656e+00,3.639999926090240479e-01,1.914999961853027344e+00,1.065353216000000000e+09
2.098999977111816406e+00,4.729999899864196777e-01,1.914000034332275391e+00,1.065353216000000000e+09
2.229000091552734375e+00,5.830000042915344238e-01,1.899999976158142090e+00,1.065353216000000000e+09
1.817000031471252441e+00,2.939999997615814209e-01,1.917000055313110352e+00,1.065353216000000000e+09
1.952999949455261230e+00,4.079999923706054688e-01,1.916000008583068848e+00,1.065353216000000000e+09
2.085999965667724609e+00,5.199999809265136719e-01,1.911999940872192383e+00,1.065353216000000000e+09
2.213000059127807617e+00,6.349999904632568359e-01,1.899000048637390137e+00,1.065353216000000000e+09
1.812999963760375977e+00,3.339999914169311523e-01,1.917000055313110352e+00,1.065353216000000000e+09
1.947000026702880859e+00,4.519999921321868896e-01,1.917000055313110352e+00,1.065353216000000000e+09
2.073999881744384766e+00,5.680000185966491699e-01,1.911999940872192383e+00,1.065353216000000000e+09
2.200000047683715820e+00,6.869999766349792480e-01,1.901999950408935547e+00,1.065353216000000000e+09
1.807999968528747559e+00,3.729999959468841553e-01,1.916000008583068848e+00,1.065353216000000000e+09
1.932000041007995605e+00,4.939999878406524658e-01,1.911000013351440430e+00,1.065353216000000000e+09
2.059999942779541016e+00,6.150000095367431641e-01,1.911000013351440430e+00,1.065353216000000000e+09
2.180000066757202148e+00,7.379999756813049316e-01,1.901000022888183594e+00,1.065353216000000000e+09
1.802000045776367188e+00,4.129999876022338867e-01,1.914999961853027344e+00,1.065353216000000000e+09
1.924000024795532227e+00,5.379999876022338867e-01,1.912999987602233887e+00,1.065353216000000000e+09
2.046999931335449219e+00,6.620000004768371582e-01,1.911999940872192383e+00,1.065353216000000000e+09
2.157000064849853516e+00,7.870000004768371582e-01,1.896999955177307129e+00,1.065353216000000000e+09
1.794999957084655762e+00,4.530000090599060059e-01,1.912999987602233887e+00,1.065353216000000000e+09
1.916000008583068848e+00,5.820000171661376953e-01,1.914000034332275391e+00,1.065353216000000000e+09
2.030999898910522461e+00,7.089999914169311523e-01,1.911999940872192383e+00,1.065353216000000000e+09
2.141999959945678711e+00,8.389999866485595703e-01,1.901000022888183594e+00,1.065353216000000000e+09
1.786000013351440430e+00,4.920000135898590088e-01,1.911000013351440430e+00,1.065353216000000000e+09
1.902999997138977051e+00,6.250000000000000000e-01,1.914000034332275391e+00,1.065353216000000000e+09
2.013000011444091797e+00,7.549999952316284180e-01,1.909999966621398926e+00,1.065353216000000000e+09
2.115999937057495117e+00,8.859999775886535645e-01,1.898000001907348633e+00,1.065353216000000000e+09
1.777999997138977051e+00,5.320000052452087402e-01,1.909999966621398926e+00,1.065353216000000000e+09
1.889999985694885254e+00,6.679999828338623047e-01,1.911999940872192383e+00,1.065353216000000000e+09
1.993999958038330078e+00,7.990000247955322266e-01,1.907999992370605469e+00,1.065353216000000000e+09
2.094000101089477539e+00,9.350000023841857910e-01,1.898000001907348633e+00,1.065353216000000000e+09
1.774999976158142090e+00,5.730000138282775879e-01,1.916000008583068848e+00,1.065353216000000000e+09
1.875000000000000000e+00,7.099999785423278809e-01,1.911000013351440430e+00,1.065353216000000000e+09
1.973999977111816406e+00,8.439999818801879883e-01,1.906999945640563965e+00,1.065353216000000000e+09
2.069000005722045898e+00,9.819999933242797852e-01,1.896999955177307129e+00,1.065353216000000000e+09
1.766999959945678711e+00,6.140000224113464355e-01,1.917000055313110352e+00,1.065353216000000000e+09
1.858999967575073242e+00,7.519999742507934570e-01,1.909999966621398926e+00,1.065353216000000000e+09
1.955999970436096191e+00,8.899999856948852539e-01,1.909000039100646973e+00,1.065353216000000000e+09
2.042999982833862305e+00,1.029000043869018555e+00,1.896999955177307129e+00,1.065353216000000000e+09
1.746999979019165039e+00,6.499999761581420898e-01,1.906000018119812012e+00,1.065353216000000000e+09
1.845999956130981445e+00,7.950000166893005371e-01,1.911999940872192383e+00,1.065353216000000000e+09
1.932999968528747559e+00,9.330000281333923340e-01,1.906000018119812012e+00,1.065353216000000000e+09
2.016000032424926758e+00,1.075000047683715820e+00,1.894999980926513672e+00,1.065353216000000000e+09
1.745000004768371582e+00,6.930000185966491699e-01,1.914999961853027344e+00,1.065353216000000000e+09
1.828999996185302734e+00,8.360000252723693848e-01,1.911000013351440430e+00,1.065353216000000000e+09
1.911999940872192383e+00,9.769999980926513672e-01,1.906999945640563965e+00,1.065353216000000000e+09
1.988999962806701660e+00,1.121000051498413086e+00,1.896000027656555176e+00,1.065353216000000000e+09
1.728999972343444824e+00,7.310000061988830566e-01,1.909999966621398926e+00,1.065353216000000000e+09
1.809000015258789062e+00,8.759999871253967285e-01,1.907999992370605469e+00,1.065353216000000000e+09
1.891000032424926758e+00,1.021000027656555176e+00,1.907999992370605469e+00,1.065353216000000000e+09
1.960999965667724609e+00,1.166000008583068848e+00,1.896999955177307129e+00,1.065353216000000000e+09
1.718999981880187988e+00,7.720000147819519043e-01,1.912999987602233887e+00,1.065353216000000000e+09
1.792000055313110352e+00,9.179999828338623047e-01,1.907999992370605469e+00,1.065353216000000000e+09
1.863000035285949707e+00,1.062000036239624023e+00,1.904000043869018555e+00,1.065353216000000000e+09
1.930999994277954102e+00,1.208999991416931152e+00,1.896000027656555176e+00,1.065353216000000000e+09
1.703999996185302734e+00,8.100000023841857910e-01,1.909999966621398926e+00,1.065353216000000000e+09
1.771999955177307129e+00,9.580000042915344238e-01,1.906999945640563965e+00,1.065353216000000000e+09
1.837000012397766113e+00,1.103000044822692871e+00,1.902999997138977051e+00,1.065353216000000000e+09
1.899999976158142090e+00,1.251999974250793457e+00,1.896000027656555176e+00,1.065353216000000000e+09
1.687999963760375977e+00,8.489999771118164062e-01,1.907999992370605469e+00,1.065353216000000000e+09
1.751999974250793457e+00,9.990000128746032715e-01,1.907999992370605469e+00,1.065353216000000000e+09
1.814000010490417480e+00,1.146000027656555176e+00,1.906000018119812012e+00,1.065353216000000000e+09
1.871000051498413086e+00,1.296000003814697266e+00,1.899000048637390137e+00,1.065353216000000000e+09
1.672000050544738770e+00,8.870000243186950684e-01,1.906999945640563965e+00,1.065353216000000000e+09
1.730999946594238281e+00,1.039000034332275391e+00,1.906999945640563965e+00,1.065353216000000000e+09
1.786000013351440430e+00,1.185999989509582520e+00,1.904000043869018555e+00,1.065353216000000000e+09
1.832000017166137695e+00,1.332999944686889648e+00,1.891999959945678711e+00,1.065353216000000000e+09
1.656999945640563965e+00,9.269999861717224121e-01,1.906999945640563965e+00,1.065353216000000000e+09
1.707999944686889648e+00,1.077000021934509277e+00,1.904999971389770508e+00,1.065353216000000000e+09
1.756999969482421875e+00,1.225000023841857910e+00,1.901999950408935547e+00,1.065353216000000000e+09
1.804000020027160645e+00,1.376999974250793457e+00,1.896999955177307129e+00,1.065353216000000000e+09
1.641999959945678711e+00,9.670000076293945312e-01,1.909000039100646973e+00,1.065353216000000000e+09
1.684000015258789062e+00,1.116000056266784668e+00,1.904000043869018555e+00,1.065353216000000000e+09
1.730999946594238281e+00,1.266000032424926758e+00,1.904999971389770508e+00,1.065353216000000000e+09
1.769000053405761719e+00,1.416000008583068848e+00,1.896999955177307129e+00,1.065353216000000000e+09
1.621000051498413086e+00,1.003999948501586914e+00,1.906000018119812012e+00,1.065353216000000000e+09
1.664999961853027344e+00,1.156999945640563965e+00,1.907999992370605469e+00,1.065353216000000000e+09
1.702000021934509277e+00,1.304999947547912598e+00,1.904999971389770508e+00,1.065353216000000000e+09
1.730999946594238281e+00,1.452000021934509277e+00,1.894000053405761719e+00,1.065353216000000000e+09
1.600999951362609863e+00,1.041000008583068848e+00,1.904000043869018555e+00,1.065353216000000000e+09
1.639000058174133301e+00,1.195000052452087402e+00,1.906999945640563965e+00,1.065353216000000000e+09
1.669000029563903809e+00,1.340999960899353027e+00,1.901999950408935547e+00,1.065353216000000000e+09
1.697000026702880859e+00,1.491999983787536621e+00,1.896999955177307129e+00,1.065353216000000000e+09
1.583999991416931152e+00,1.080999970436096191e+00,1.906000018119812012e+00,1.065353216000000000e+09
1.613999962806701660e+00,1.231999993324279785e+00,1.906000018119812012e+00,1.065353216000000000e+09
1.639999985694885254e+00,1.378999948501586914e+00,1.904000043869018555e+00,1.065353216000000000e+09
1.657999992370605469e+00,1.526999950408935547e+00,1.894000053405761719e+00,1.065353216000000000e+09
1.565000057220458984e+00,1.120000004768371582e+00,1.906999945640563965e+00,1.065353216000000000e+09
1.588000059127807617e+00,1.269999980926513672e+00,1.906999945640563965e+00,1.065353216000000000e+09
1.608999967575073242e+00,1.417000055313110352e+00,1.904999971389770508e+00,1.065353216000000000e+09
1.618999958038330078e+00,1.560999989509582520e+00,1.894000053405761719e+00,1.065353216000000000e+09
1.544000029563903809e+00,1.157999992370605469e+00,1.906999945640563965e+00,1.065353216000000000e+09
1.560999989509582520e+00,1.305999994277954102e+00,1.906999945640563965e+00,1.065353216000000000e+09
1.572999954223632812e+00,1.450000047683715820e+00,1.901000022888183594e+00,1.065353216000000000e+09
1.580000042915344238e+00,1.595000028610229492e+00,1.893000006675720215e+00,1.065353216000000000e+09
1.519000053405761719e+00,1.192999958992004395e+00,1.902999997138977051e+00,1.065353216000000000e+09
1.531999945640563965e+00,1.342000007629394531e+00,1.904999971389770508e+00,1.065353216000000000e+09
1.542999982833862305e+00,1.488000035285949707e+00,1.904999971389770508e+00,1.065353216000000000e+09
1.539999961853027344e+00,1.628000020980834961e+00,1.891999959945678711e+00,1.065353216000000000e+09
1.496000051498413086e+00,1.230000019073486328e+00,1.904000043869018555e+00,1.065353216000000000e+09
1.501000046730041504e+00,1.375000000000000000e+00,1.901000022888183594e+00,1.065353216000000000e+09
1.506999969482421875e+00,1.519999980926513672e+00,1.902999997138977051e+00,1.065353216000000000e+09
1.498000025749206543e+00,1.656999945640563965e+00,1.889000058174133301e+00,1.065353216000000000e+09
1.472000002861022949e+00,1.266000032424926758e+00,1.901999950408935547e+00,1.065353216000000000e+09
1.473999977111816406e+00,1.412999987602233887e+00,1.904999971389770508e+00,1.065353216000000000e+09
1.470999956130981445e+00,1.552999973297119141e+00,1.901999950408935547e+00,1.065353216000000000e+09
1.462000012397766113e+00,1.692999958992004395e+00,1.894999980926513672e+00,1.065353216000000000e+09
1.449000000953674316e+00,1.304999947547912598e+00,1.904999971389770508e+00,1.065353216000000000e+09
1.442999958992004395e+00,1.445999979972839355e+00,1.904000043869018555e+00,1.065353216000000000e+09
1.435999989509582520e+00,1.585999965667724609e+00,1.902999997138977051e+00,1.065353216000000000e+09
1.419000029563903809e+00,1.720000028610229492e+00,1.891999959945678711e+00,1.065353216000000000e+09
1.422000050544738770e+00,1.338999986648559570e+00,1.902999997138977051e+00,1.065353216000000000e+09
1.411999940872192383e+00,1.480000019073486328e+00,1.904000043869018555e+00,1.065353216000000000e+09
1.399000048637390137e+00,1.616000056266784668e+00,1.901999950408935547e+00,1.065353216000000000e+09
1.375000000000000000e+00,1.746000051498413086e+00,1.889000058174133301e+00,1.065353216000000000e+09
1.394000053405761719e+00,1.373000025749206543e+00,1.901000022888183594e+00,1.065353216000000000e+09
1.381000041961669922e+00,1.514000058174133301e+00,1.904999971389770508e+00,1.065353216000000000e+09
1.360999941825866699e+00,1.646000027656555176e+00,1.899999976158142090e+00,1.065353216000000000e+09
1.335000038146972656e+00,1.776999950408935547e+00,1.891999959945678711e+00,1.065353216000000000e+09
1.366000056266784668e+00,1.406999945640563965e+00,1.898000001907348633e+00,1.065353216000000000e+09
1.348000049591064453e+00,1.546000003814697266e+00,1.904000043869018555e+00,1.065353216000000000e+09
1.315000057220458984e+00,1.666000008583068848e+00,1.889000058174133301e+00,1.065353216000000000e+09
1.292000055313110352e+00,1.804999947547912598e+00,1.893000006675720215e+00,1.065353216000000000e+09
1.340000033378601074e+00,1.445000052452087402e+00,1.901999950408935547e+00,1.065353216000000000e+09
1.315000057220458984e+00,1.577999949455261230e+00,1.904000043869018555e+00,1.065353216000000000e+09
1.286999940872192383e+00,1.707000017166137695e+00,1.902999997138977051e+00,1.065353216000000000e+09
1.250000000000000000e+00,1.830999970436096191e+00,1.894000053405761719e+00,1.065353216000000000e+09
1.312999963760375977e+00,1.480999946594238281e+00,1.904000043869018555e+00,1.065353216000000000e+09
1.279000043869018555e+00,1.606999993324279785e+00,1.901999950408935547e+00,1.065353216000000000e+09
1.236999988555908203e+00,1.720999956130981445e+00,1.886999964714050293e+00,1.065353216000000000e+09
1.207000017166137695e+00,1.855999946594238281e+00,1.894999980926513672e+00,1.065353216000000000e+09
1.281999945640563965e+00,1.513000011444091797e+00,1.901999950408935547e+00,1.065353216000000000e+09
1.243000030517578125e+00,1.636000037193298340e+00,1.899999976158142090e+00,1.065353216000000000e+09
1.205999970436096191e+00,1.758999943733215332e+00,1.899999976158142090e+00,1.065353216000000000e+09
1.159000039100646973e+00,1.875000000000000000e+00,1.891000032424926758e+00,1.065353216000000000e+09
1.248999953269958496e+00,1.542999982833862305e+00,1.899000048637390137e+00,1.065353216000000000e+09
1.207999944686889648e+00,1.666000008583068848e+00,1.899999976158142090e+00,1.065353216000000000e+09
1.164999961853027344e+00,1.784000039100646973e+00,1.899000048637390137e+00,1.065353216000000000e+09
1.116000056266784668e+00,1.898000001907348633e+00,1.891999959945678711e+00,1.065353216000000000e+09
1.220000028610229492e+00,1.580000042915344238e+00,1.901999950408935547e+00,1.065353216000000000e+09
1.172000050544738770e+00,1.695000052452087402e+00,1.899999976158142090e+00,1.065353216000000000e+09
1.123000025749206543e+00,1.805999994277954102e+00,1.896000027656555176e+00,1.065353216000000000e+09
1.070999979972839355e+00,1.919000029563903809e+00,1.891999959945678711e+00,1.065353216000000000e+09
1.185999989509582520e+00,1.610000014305114746e+00,1.899999976158142090e+00,1.065353216000000000e+09
1.134999990463256836e+00,1.723999977111816406e+00,1.901000022888183594e+00,1.065353216000000000e+09
1.082999944686889648e+00,1.832000017166137695e+00,1.896999955177307129e+00,1.065353216000000000e+09
1.026000022888183594e+00,1.940999984741210938e+00,1.894000053405761719e+00,1.065353216000000000e+09
1.151000022888183594e+00,1.639000058174133301e+00,1.896999955177307129e+00,1.065353216000000000e+09
1.098000049591064453e+00,1.751000046730041504e+00,1.901000022888183594e+00,1.065353216000000000e+09
1.042999982833862305e+00,1.858000040054321289e+00,1.899000048637390137e+00,1.065353216000000000e+09
9.789999723434448242e-01,1.957000017166137695e+00,1.891000032424926758e+00,1.065353216000000000e+09
1.118999958038330078e+00,1.674000024795532227e+00,1.901000022888183594e+00,1.065353216000000000e+09
1.059999942779541016e+00,1.779000043869018555e+00,1.901999950408935547e+00,1.065353216000000000e+09
9.990000128746032715e-01,1.876999974250793457e+00,1.896000027656555176e+00,1.065353216000000000e+09
9.359999895095825195e-01,1.980000019073486328e+00,1.896999955177307129e+00,1.065353216000000000e+09
1.083999991416931152e+00,1.705000042915344238e+00,1.901000022888183594e+00,1.065353216000000000e+09
1.019999980926513672e+00,1.802000045776367188e+00,1.899000048637390137e+00,1.065353216000000000e+09
9.559999704360961914e-01,1.898000001907348633e+00,1.896000027656555176e+00,1.065353216000000000e+09
8.880000114440917969e-01,1.991999983787536621e+00,1.891999959945678711e+00,1.065353216000000000e+09
1.046000003814697266e+00,1.728999972343444824e+00,1.894999980926513672e+00,1.065353216000000000e+09
9.800000190734863281e-01,1.825999975204467773e+00,1.898000001907348633e+00,1.065353216000000000e+09
9.160000085830688477e-01,1.924000024795532227e+00,1.901999950408935547e+00,1.065353216000000000e+09
8.420000076293945312e-01,2.006000041961669922e+00,1.891999959945678711e+00,1.065353216000000000e+09
1.009999990463256836e+00,1.758999943733215332e+00,1.896999955177307129e+00,1.065353216000000000e+09
9.399999976158142090e-01,1.850999951362609863e+00,1.899000048637390137e+00,1.065353216000000000e+09
8.669999837875366211e-01,1.929000020027160645e+00,1.888000011444091797e+00,1.065353216000000000e+09
7.950000166893005371e-01,2.019999980926513672e+00,1.891999959945678711e+00,1.065353216000000000e+09
9.739999771118164062e-01,1.789999961853027344e+00,1.899999976158142090e+00,1.065353216000000000e+09
8.989999890327453613e-01,1.871999979019165039e+00,1.896999955177307129e+00,1.065353216000000000e+09
8.240000009536743164e-01,1.950000047683715820e+00,1.891000032424926758e+00,1.065353216000000000e+09
7.490000128746032715e-01,2.032999992370605469e+00,1.891999959945678711e+00,1.065353216000000000e+09
9.369999766349792480e-01,1.820999979972839355e+00,1.901999950408935547e+00,1.065353216000000000e+09
8.579999804496765137e-01,1.894999980926513672e+00,1.898000001907348633e+00,1.065353216000000000e+09
7.789999842643737793e-01,1.965000033378601074e+00,1.889000058174133301e+00,1.065353216000000000e+09
7.020000219345092773e-01,2.043999910354614258e+00,1.891000032424926758e+00,1.065353216000000000e+09
8.960000276565551758e-01,1.843000054359436035e+00,1.896999955177307129e+00,1.065353216000000000e+09
8.180000185966491699e-01,1.919999957084655762e+00,1.901000022888183594e+00,1.065353216000000000e+09
7.350000143051147461e-01,1.980000019073486328e+00,1.888000011444091797e+00,1.065353216000000000e+09
6.549999713897705078e-01,2.053999900817871094e+00,1.891000032424926758e+00,1.065353216000000000e+09
8.560000061988830566e-01,1.868999958038330078e+00,1.896999955177307129e+00,1.065353216000000000e+09
7.749999761581420898e-01,1.937999963760375977e+00,1.898000001907348633e+00,1.065353216000000000e+09
6.909999847412109375e-01,1.996000051498413086e+00,1.889000058174133301e+00,1.065353216000000000e+09
6.090000271797180176e-01,2.065000057220458984e+00,1.891999959945678711e+00,1.065353216000000000e+09
8.140000104904174805e-01,1.891000032424926758e+00,1.894000053405761719e+00,1.065353216000000000e+09
7.310000061988830566e-01,1.957000017166137695e+00,1.898000001907348633e+00,1.065353216000000000e+09
6.470000147819519043e-01,2.012000083923339844e+00,1.891000032424926758e+00,1.065353216000000000e+09
5.619999766349792480e-01,2.072999954223632812e+00,1.891999959945678711e+00,1.065353216000000000e+09
7.730000019073486328e-01,1.914999961853027344e+00,1.894000053405761719e+00,1.065353216000000000e+09
6.880000233650207520e-01,1.975000023841857910e+00,1.896999955177307129e+00,1.065353216000000000e+09
6.010000109672546387e-01,2.023999929428100586e+00,1.889999985694885254e+00,1.065353216000000000e+09
5.159999728202819824e-01,2.085999965667724609e+00,1.896999955177307129e+00,1.065353216000000000e+09
7.319999933242797852e-01,1.942000031471252441e+00,1.896000027656555176e+00,1.065353216000000000e+09
6.439999938011169434e-01,1.991999983787536621e+00,1.896000027656555176e+00,1.065353216000000000e+09
5.559999942779541016e-01,2.038000106811523438e+00,1.891000032424926758e+00,1.065353216000000000e+09
4.679999947547912598e-01,2.088000059127807617e+00,1.893000006675720215e+00,1.065353216000000000e+09
6.880000233650207520e-01,1.960000038146972656e+00,1.891000032424926758e+00,1.065353216000000000e+09
5.989999771118164062e-01,2.006000041961669922e+00,1.894000053405761719e+00,1.065353216000000000e+09
5.099999904632568359e-01,2.046000003814697266e+00,1.889000058174133301e+00,1.065353216000000000e+09
4.210000038146972656e-01,2.092999935150146484e+00,1.893000006675720215e+00,1.065353216000000000e+09
6.460000276565551758e-01,1.986999988555908203e+00,1.896999955177307129e+00,1.065353216000000000e+09
5.550000071525573730e-01,2.023999929428100586e+00,1.896000027656555176e+00,1.065353216000000000e+09
4.650000035762786865e-01,2.059999942779541016e+00,1.893000006675720215e+00,1.065353216000000000e+09
3.740000128746032715e-01,2.096999883651733398e+00,1.891999959945678711e+00,1.065353216000000000e+09
6.000000238418579102e-01,2.002000093460083008e+00,1.891000032424926758e+00,1.065353216000000000e+09
5.090000033378601074e-01,2.036999940872192383e+00,1.894000053405761719e+00,1.065353216000000000e+09
4.180000126361846924e-01,2.065000057220458984e+00,1.888000011444091797e+00,1.065353216000000000e+09
3.280000090599060059e-01,2.101999998092651367e+00,1.894999980926513672e+00,1.065353216000000000e+09
5.559999942779541016e-01,2.022000074386596680e+00,1.891000032424926758e+00,1.065353216000000000e+09
4.639999866485595703e-01,2.049999952316284180e+00,1.893000006675720215e+00,1.065353216000000000e+09
3.729999959468841553e-01,2.073999881744384766e+00,1.889999985694885254e+00,1.065353216000000000e+09
2.820000052452087402e-01,2.105999946594238281e+00,1.896000027656555176e+00,1.065353216000000000e+09
5.099999904632568359e-01,2.039000034332275391e+00,1.889000058174133301e+00,1.065353216000000000e+09
4.180000126361846924e-01,2.062000036239624023e+00,1.893000006675720215e+00,1.065353216000000000e+09
3.269999921321868896e-01,2.078999996185302734e+00,1.888000011444091797e+00,1.065353216000000000e+09
2.339999973773956299e-01,2.094000101089477539e+00,1.883999943733215332e+00,1.065353216000000000e+09
4.650000035762786865e-01,2.056999921798706055e+00,1.889000058174133301e+00,1.065353216000000000e+09
3.740000128746032715e-01,2.084000110626220703e+00,1.901999950408935547e+00,1.065353216000000000e+09
