x,y,z,intensity
-2.000000029802322388e-01,-1.080000028014183044e-01,1.509999930858612061e-01,1.065353216000000000e+09
0.000000000000000000e+00,0.000000000000000000e+00,0.000000000000000000e+00,1.065353216000000000e+09
-1.940000057220458984e-01,-1.299999952316284180e-01,1.420000046491622925e-01,1.065353216000000000e+09
-2.119999974966049194e-01,-1.319999992847442627e-01,1.589999943971633911e-01,1.065353216000000000e+09
0.000000000000000000e+00,0.000000000000000000e+00,0.000000000000000000e+00,1.065353216000000000e+09
-2.090000063180923462e-01,-1.070000007748603821e-01,1.620000004768371582e-01,1.065353216000000000e+09
0.000000000000000000e+00,0.000000000000000000e+00,0.000000000000000000e+00,1.065353216000000000e+09
0.000000000000000000e+00,0.000000000000000000e+00,0.000000000000000000e+00,1.065353216000000000e+09
-1.949999928474426270e-01,-1.159999966621398926e-01,1.500000059604644775e-01,1.065353216000000000e+09
0.000000000000000000e+00,0.000000000000000000e+00,0.000000000000000000e+00,1.065353216000000000e+09
-1.930000036954879761e-01,-1.420000046491622925e-01,1.469999998807907104e-01,1.065353216000000000e+09
-2.070000022649765015e-01,-1.420000046491622925e-01,1.589999943971633911e-01,1.065353216000000000e+09
0.000000000000000000e+00,0.000000000000000000e+00,0.000000000000000000e+00,1.065353216000000000e+09
-2.060000002384185791e-01,-1.169999986886978149e-01,1.630000025033950806e-01,1.065353216000000000e+09
0.000000000000000000e+00,0.000000000000000000e+00,0.000000000000000000e+00,1.065353216000000000e+09
0.000000000000000000e+00,0.000000000000000000e+00,0.000000000000000000e+00,1.065353216000000000e+09
-1.920000016689300537e-01,-1.260000020265579224e-01,1.519999951124191284e-01,1.065353216000000000e+09
0.000000000000000000e+00,0.000000000000000000e+00,0.000000000000000000e+00,1.065353216000000000e+09
-1.879999935626983643e-01,-1.519999951124191284e-01,1.480000019073486328e-01,1.065353216000000000e+09
-2.010000050067901611e-01,-1.509999930858612061e-01,1.589999943971633911e-01,1.065353216000000000e+09
0.000000000000000000e+00,0.000000000000000000e+00,0.000000000000000000e+00,1.065353216000000000e+09
-2.010000050067901611e-01,-1.260000020265579224e-01,1.620000004768371582e-01,1.065353216000000000e+09
0.000000000000000000e+00,0.000000000000000000e+00,0.000000000000000000e+00,1.065353216000000000e+09
0.000000000000000000e+00,0.000000000000000000e+00,0.000000000000000000e+00,1.065353216000000000e+09
-1.879999935626983643e-01,-1.350000053644180298e-01,1.529999971389770508e-01,1.065353216000000000e+09
0.000000000000000000e+00,0.000000000000000000e+00,0.000000000000000000e+00,1.065353216000000000e+09
-1.879999935626983643e-01,-1.669999957084655762e-01,1.539999991655349731e-01,1.065353216000000000e+09
-1.940000057220458984e-01,-1.589999943971633911e-01,1.589999943971633911e-01,1.065353216000000000e+09
0.000000000000000000e+00,0.000000000000000000e+00,0.000000000000000000e+00,1.065353216000000000e+09
-1.949999928474426270e-01,-1.350000053644180298e-01,1.620000004768371582e-01,1.065353216000000000e+09
0.000000000000000000e+00,0.000000000000000000e+00,0.000000000000000000e+00,1.065353216000000000e+09
0.000000000000000000e+00,0.000000000000000000e+00,0.000000000000000000e+00,1.065353216000000000e+09
-1.860000044107437134e-01,-1.469999998807907104e-01,1.560000032186508179e-01,1.065353216000000000e+09
0.000000000000000000e+00,0.000000000000000000e+00,0.000000000000000000e+00,1.065353216000000000e+09
-1.790000051259994507e-01,-1.729999929666519165e-01,1.529999971389770508e-01,1.065353216000000000e+09
-1.959999948740005493e-01,-1.770000010728836060e-01,1.679999977350234985e-01,1.065353216000000000e+09
0.000000000000000000e+00,0.000000000000000000e+00,0.000000000000000000e+00,1.065353216000000000e+09
-1.930000036954879761e-01,-1.459999978542327881e-01,1.640000045299530029e-01,1.065353216000000000e+09
0.000000000000000000e+00,0.000000000000000000e+00,0.000000000000000000e+00,1.065353216000000000e+09
0.000000000000000000e+00,0.000000000000000000e+00,0.000000000000000000e+00,1.065353216000000000e+09
-1.800000071525573730e-01,-1.560000032186508179e-01,1.560000032186508179e-01,1.065353216000000000e+09
0.000000000000000000e+00,0.000000000000000000e+00,0.000000000000000000e+00,1.065353216000000000e+09
-1.729999929666519165e-01,-1.840000003576278687e-01,1.560000032186508179e-01,1.065353216000000000e+09
-1.909999996423721313e-01,-1.879999935626983643e-01,1.700000017881393433e-01,1.065353216000000000e+09
0.000000000000000000e+00,0.000000000000000000e+00,0.000000000000000000e+00,1.065353216000000000e+09
-1.909999996423721313e-01,-1.589999943971633911e-01,1.669999957084655762e-01,1.065353216000000000e+09
0.000000000000000000e+00,0.000000000000000000e+00,0.000000000000000000e+00,1.065353216000000000e+09
0.000000000000000000e+00,0.000000000000000000e+00,0.000000000000000000e+00,1.065353216000000000e+09
-1.749999970197677612e-01,-1.659999936819076538e-01,1.580000072717666626e-01,1.065353216000000000e+09
0.000000000000000000e+00,0.000000000000000000e+00,0.000000000000000000e+00,1.065353216000000000e+09
-1.700000017881393433e-01,-1.969999969005584717e-01,1.609999984502792358e-01,1.065353216000000000e+09
-1.840000003576278687e-01,-1.979999989271163940e-01,1.710000038146972656e-01,1.065353216000000000e+09
0.000000000000000000e+00,0.000000000000000000e+00,0.000000000000000000e+00,1.065353216000000000e+09
-1.850000023841857910e-01,-1.679999977350234985e-01,1.669999957084655762e-01,1.065353216000000000e+09
0.000000000000000000e+00,0.000000000000000000e+00,0.000000000000000000e+00,1.065353216000000000e+09
0.000000000000000000e+00,0.000000000000000000e+00,0.000000000000000000e+00,1.065353216000000000e+09
-1.710000038146972656e-01,-1.770000010728836060e-01,1.599999964237213135e-01,1.065353216000000000e+09
0.000000000000000000e+00,0.000000000000000000e+00,0.000000000000000000e+00,1.065353216000000000e+09
-1.650000065565109253e-01,-2.090000063180923462e-01,1.650000065565109253e-01,1.065353216000000000e+09
-1.780000030994415283e-01,-2.099999934434890747e-01,1.749999970197677612e-01,1.065353216000000000e+09
0.000000000000000000e+00,0.000000000000000000e+00,0.000000000000000000e+00,1.065353216000000000e+09
-1.790000051259994507e-01,-1.780000030994415283e-01,1.679999977350234985e-01,1.065353216000000000e+09
0.000000000000000000e+00,0.000000000000000000e+00,0.000000000000000000e+00,1.065353216000000000e+09
0.000000000000000000e+00,0.000000000000000000e+00,0.000000000000000000e+00,1.065353216000000000e+09
-1.679999977350234985e-01,-1.899999976158142090e-01,1.640000045299530029e-01,1.065353216000000000e+09
0.000000000000000000e+00,0.000000000000000000e+00,0.000000000000000000e+00,1.065353216000000000e+09
-1.589999943971633911e-01,-2.220000028610229492e-01,1.689999997615814209e-01,1.065353216000000000e+09
-1.729999929666519165e-01,-2.240000069141387939e-01,1.790000051259994507e-01,1.065353216000000000e+09
0.000000000000000000e+00,0.000000000000000000e+00,0.000000000000000000e+00,1.065353216000000000e+09
-1.729999929666519165e-01,-1.879999935626983643e-01,1.689999997615814209e-01,1.065353216000000000e+09
0.000000000000000000e+00,0.000000000000000000e+00,0.000000000000000000e+00,1.065353216000000000e+09
0.000000000000000000e+00,0.000000000000000000e+00,0.000000000000000000e+00,1.065353216000000000e+09
-1.599999964237213135e-01,-1.990000009536743164e-01,1.650000065565109253e-01,1.065353216000000000e+09
0.000000000000000000e+00,0.000000000000000000e+00,0.000000000000000000e+00,1.065353216000000000e+09
-1.550000011920928955e-01,-2.380000054836273193e-01,1.770000010728836060e-01,1.065353216000000000e+09
-1.669999957084655762e-01,-2.370000034570693970e-01,1.840000003576278687e-01,1.065353216000000000e+09
0.000000000000000000e+00,0.000000000000000000e+00,0.000000000000000000e+00,1.065353216000000000e+09
-1.650000065565109253e-01,-1.959999948740005493e-01,1.679999977350234985e-01,1.065353216000000000e+09
0.000000000000000000e+00,0.000000000000000000e+00,0.000000000000000000e+00,1.065353216000000000e+09
0.000000000000000000e+00,0.000000000000000000e+00,0.000000000000000000e+00,1.065353216000000000e+09
-1.589999943971633911e-01,-2.160000056028366089e-01,1.729999929666519165e-01,1.065353216000000000e+09
0.000000000000000000e+00,0.000000000000000000e+00,0.000000000000000000e+00,1.065353216000000000e+09
-1.480000019073486328e-01,-2.509999871253967285e-01,1.819999963045120239e-01,1.065353216000000000e+09
-1.640000045299530029e-01,-2.560000121593475342e-01,1.920000016689300537e-01,1.065353216000000000e+09
0.000000000000000000e+00,0.000000000000000000e+00,0.000000000000000000e+00,1.065353216000000000e+09
-1.609999984502792358e-01,-2.109999954700469971e-01,1.729999929666519165e-01,1.065353216000000000e+09
0.000000000000000000e+00,0.000000000000000000e+00,0.000000000000000000e+00,1.065353216000000000e+09
0.000000000000000000e+00,0.000000000000000000e+00,0.000000000000000000e+00,1.065353216000000000e+09
-1.539999991655349731e-01,-2.300000041723251343e-01,1.780000030994415283e-01,1.065353216000000000e+09
0.000000000000000000e+00,0.000000000000000000e+00,0.000000000000000000e+00,1.065353216000000000e+09
-1.449999958276748657e-01,-2.720000147819519043e-01,1.930000036954879761e-01,1.065353216000000000e+09
-1.550000011920928955e-01,-2.669999897480010986e-01,1.949999928474426270e-01,1.065353216000000000e+09
0.000000000000000000e+00,0.000000000000000000e+00,0.000000000000000000e+00,1.065353216000000000e+09
-1.570000052452087402e-01,-2.259999960660934448e-01,1.780000030994415283e-01,1.065353216000000000e+09
0.000000000000000000e+00,0.000000000000000000e+00,0.000000000000000000e+00,1.065353216000000000e+09
0.000000000000000000e+00,0.000000000000000000e+00,0.000000000000000000e+00,1.065353216000000000e+09
-1.469999998807907104e-01,-2.440000027418136597e-01,1.819999963045120239e-01,1.065353216000000000e+09
0.000000000000000000e+00,0.000000000000000000e+00,0.000000000000000000e+00,1.065353216000000000e+09
-1.369999945163726807e-01,-2.870000004768371582e-01,1.990000009536743164e-01,1.065353216000000000e+09
-1.500000059604644775e-01,-2.860000133514404297e-01,2.039999961853027344e-01,1.065353216000000000e+09
0.000000000000000000e+00,0.000000000000000000e+00,0.000000000000000000e+00,1.065353216000000000e+09
-1.529999971389770508e-01,-2.440000027418136597e-01,1.850000023841857910e-01,1.065353216000000000e+09
0.000000000000000000e+00,0.000000000000000000e+00,0.000000000000000000e+00,1.065353216000000000e+09
0.000000000000000000e+00,0.000000000000000000e+00,0.000000000000000000e+00,1.065353216000000000e+09
-1.430000066757202148e-01,-2.619999945163726807e-01,1.899999976158142090e-01,1.065353216000000000e+09
0.000000000000000000e+00,0.000000000000000000e+00,0.000000000000000000e+00,1.065353216000000000e+09
-1.289999932050704956e-01,-3.050000071525573730e-01,2.080000042915344238e-01,1.065353216000000000e+09
-1.400000005960464478e-01,-3.000000119209289551e-01,2.090000063180923462e-01,1.065353216000000000e+09
0.000000000000000000e+00,0.000000000000000000e+00,0.000000000000000000e+00,1.065353216000000000e+09
-1.469999998807907104e-01,-2.590000033378601074e-01,1.899999976158142090e-01,1.065353216000000000e+09
0.000000000000000000e+00,0.000000000000000000e+00,0.000000000000000000e+00,1.065353216000000000e+09
0.000000000000000000e+00,0.000000000000000000e+00,0.000000000000000000e+00,1.065353216000000000e+09
-1.369999945163726807e-01,-2.809999883174896240e-01,1.979999989271163940e-01,1.065353216000000000e+09
0.000000000000000000e+00,0.000000000000000000e+00,0.000000000000000000e+00,1.065353216000000000e+09
-1.220000013709068298e-01,-3.260000050067901611e-01,2.189999967813491821e-01,1.065353216000000000e+09
-1.330000013113021851e-01,-3.210000097751617432e-01,2.189999967813491821e-01,1.065353216000000000e+09
0.000000000000000000e+00,0.000000000000000000e+00,0.000000000000000000e+00,1.065353216000000000e+09
-1.420000046491622925e-01,-2.800000011920928955e-01,1.990000009536743164e-01,1.065353216000000000e+09
0.000000000000000000e+00,0.000000000000000000e+00,0.000000000000000000e+00,1.065353216000000000e+09
0.000000000000000000e+00,0.000000000000000000e+00,0.000000000000000000e+00,1.065353216000000000e+09
-1.299999952316284180e-01,-3.000000119209289551e-01,2.070000022649765015e-01,1.065353216000000000e+09
0.000000000000000000e+00,0.000000000000000000e+00,0.000000000000000000e+00,1.065353216000000000e+09
-1.129999980330467224e-01,-3.470000028610229492e-01,2.300000041723251343e-01,1.065353216000000000e+09
-1.239999979734420776e-01,-3.420000076293945312e-01,2.290000021457672119e-01,1.065353216000000000e+09
0.000000000000000000e+00,0.000000000000000000e+00,0.000000000000000000e+00,1.065353216000000000e+09
-1.340000033378601074e-01,-2.960000038146972656e-01,2.049999982118606567e-01,1.065353216000000000e+09
0.000000000000000000e+00,0.000000000000000000e+00,0.000000000000000000e+00,1.065353216000000000e+09
0.000000000000000000e+00,0.000000000000000000e+00,0.000000000000000000e+00,1.065353216000000000e+09
-1.220000013709068298e-01,-3.199999928474426270e-01,2.150000035762786865e-01,1.065353216000000000e+09
0.000000000000000000e+00,0.000000000000000000e+00,0.000000000000000000e+00,1.065353216000000000e+09
-1.030000001192092896e-01,-3.689999878406524658e-01,2.419999986886978149e-01,1.065353216000000000e+09
-1.169999986886978149e-01,-3.720000088214874268e-01,2.450000047683715820e-01,1.065353216000000000e+09
0.000000000000000000e+00,0.000000000000000000e+00,0.000000000000000000e+00,1.065353216000000000e+09
-1.280000060796737671e-01,-3.230000138282775879e-01,2.169999927282333374e-01,1.065353216000000000e+09
0.000000000000000000e+00,0.000000000000000000e+00,0.000000000000000000e+00,1.065353216000000000e+09
0.000000000000000000e+00,0.000000000000000000e+00,0.000000000000000000e+00,1.065353216000000000e+09
-1.129999980330467224e-01,-3.429999947547912598e-01,2.259999960660934448e-01,1.065353216000000000e+09
0.000000000000000000e+00,0.000000000000000000e+00,0.000000000000000000e+00,1.065353216000000000e+09
-9.300000220537185669e-02,-4.009999930858612061e-01,2.610000073909759521e-01,1.065353216000000000e+09
-1.049999967217445374e-01,-3.930000066757202148e-01,2.560000121593475342e-01,1.065353216000000000e+09
0.000000000000000000e+00,0.000000000000000000e+00,0.000000000000000000e+00,1.065353216000000000e+09
-1.169999986886978149e-01,-3.409999907016754150e-01,2.230000048875808716e-01,1.065353216000000000e+09
0.000000000000000000e+00,0.000000000000000000e+00,0.000000000000000000e+00,1.065353216000000000e+09
0.000000000000000000e+00,0.000000000000000000e+00,0.000000000000000000e+00,1.065353216000000000e+09
-1.040000021457672119e-01,-3.700000047683715820e-01,2.399999946355819702e-01,1.065353216000000000e+09
0.000000000000000000e+00,0.000000000000000000e+00,0.000000000000000000e+00,1.065353216000000000e+09
-8.200000226497650146e-02,-4.379999935626983643e-01,2.820000052452087402e-01,1.065353216000000000e+09
-9.300000220537185669e-02,-4.250000119209289551e-01,2.730000019073486328e-01,1.065353216000000000e+09
0.000000000000000000e+00,0.000000000000000000e+00,0.000000000000000000e+00,1.065353216000000000e+09
-1.089999973773956299e-01,-3.709999918937683105e-01,2.380000054836273193e-01,1.065353216000000000e+09
0.000000000000000000e+00,0.000000000000000000e+00,0.000000000000000000e+00,1.065353216000000000e+09
0.000000000000000000e+00,0.000000000000000000e+00,0.000000000000000000e+00,1.065353216000000000e+09
-9.300000220537185669e-02,-4.029999971389770508e-01,2.560000121593475342e-01,1.065353216000000000e+09
0.000000000000000000e+00,0.000000000000000000e+00,0.000000000000000000e+00,1.065353216000000000e+09
-6.800000369548797607e-02,-4.769999980926513672e-01,3.059999942779541016e-01,1.065353216000000000e+09
-7.999999821186065674e-02,-4.620000123977661133e-01,2.939999997615814209e-01,1.065353216000000000e+09
0.000000000000000000e+00,0.000000000000000000e+00,0.000000000000000000e+00,1.065353216000000000e+09
-9.799999743700027466e-02,-4.040000140666961670e-01,2.540000081062316895e-01,1.065353216000000000e+09
0.000000000000000000e+00,0.000000000000000000e+00,0.000000000000000000e+00,1.065353216000000000e+09
0.000000000000000000e+00,0.000000000000000000e+00,0.000000000000000000e+00,1.065353216000000000e+09
-8.100000023841857910e-02,-4.379999935626983643e-01,2.750000059604644775e-01,1.065353216000000000e+09
0.000000000000000000e+00,0.000000000000000000e+00,0.000000000000000000e+00,1.065353216000000000e+09
-5.099999904632568359e-02,-5.180000066757202148e-01,3.310000002384185791e-01,1.065353216000000000e+09
-6.499999761581420898e-02,-5.019999742507934570e-01,3.170000016689300537e-01,1.065353216000000000e+09
0.000000000000000000e+00,0.000000000000000000e+00,0.000000000000000000e+00,1.065353216000000000e+09
-8.200000226497650146e-02,-4.219999909400939941e-01,2.610000073909759521e-01,1.065353216000000000e+09
0.000000000000000000e+00,0.000000000000000000e+00,0.000000000000000000e+00,1.065353216000000000e+09
0.000000000000000000e+00,0.000000000000000000e+00,0.000000000000000000e+00,1.065353216000000000e+09
-6.599999964237213135e-02,-4.749999940395355225e-01,2.949999868869781494e-01,1.065353216000000000e+09
0.000000000000000000e+00,0.000000000000000000e+00,0.000000000000000000e+00,1.065353216000000000e+09
-3.099999949336051941e-02,-5.649999976158142090e-01,3.610000014305114746e-01,1.065353216000000000e+09
-4.600000008940696716e-02,-5.460000038146972656e-01,3.429999947547912598e-01,1.065353216000000000e+09
0.000000000000000000e+00,0.000000000000000000e+00,0.000000000000000000e+00,1.065353216000000000e+09
-6.800000369548797607e-02,-4.679999947547912598e-01,2.849999964237213135e-01,1.065353216000000000e+09
-1.999999955296516418e-02,-5.879999995231628418e-01,3.750000000000000000e-01,1.065353216000000000e+09
0.000000000000000000e+00,0.000000000000000000e+00,0.000000000000000000e+00,1.065353216000000000e+09
-4.899999871850013733e-02,-5.270000100135803223e-01,3.240000009536743164e-01,1.065353216000000000e+09
0.000000000000000000e+00,0.000000000000000000e+00,0.000000000000000000e+00,1.065353216000000000e+09
-8.000000379979610443e-03,-6.110000014305114746e-01,3.899999856948852539e-01,1.065353216000000000e+09
-2.300000004470348358e-02,-5.870000123977661133e-01,3.670000135898590088e-01,1.065353216000000000e+09
0.000000000000000000e+00,0.000000000000000000e+00,0.000000000000000000e+00,1.065353216000000000e+09
-5.099999904632568359e-02,-5.159999728202819824e-01,3.100000023841857910e-01,1.065353216000000000e+09
4.999999888241291046e-03,-6.869999766349792480e-01,4.390000104904174805e-01,1.065353216000000000e+09
0.000000000000000000e+00,0.000000000000000000e+00,0.000000000000000000e+00,1.065353216000000000e+09
-2.700000070035457611e-02,-5.820000171661376953e-01,3.549999892711639404e-01,1.065353216000000000e+09
0.000000000000000000e+00,0.000000000000000000e+00,0.000000000000000000e+00,1.065353216000000000e+09
2.199999988079071045e-02,-7.509999871253967285e-01,4.799999892711639404e-01,1.065353216000000000e+09
2.000000094994902611e-03,-6.539999842643737793e-01,4.070000052452087402e-01,1.065353216000000000e+09
0.000000000000000000e+00,0.000000000000000000e+00,0.000000000000000000e+00,1.065353216000000000e+09
-2.899999916553497314e-02,-5.690000057220458984e-01,3.370000123977661133e-01,1.065353216000000000e+09
3.999999910593032837e-02,-7.929999828338623047e-01,5.080000162124633789e-01,1.065353216000000000e+09
1.899999938905239105e-02,-7.390000224113464355e-01,4.609999954700469971e-01,1.065353216000000000e+09
-1.000000047497451305e-03,-6.549999713897705078e-01,3.970000147819519043e-01,1.065353216000000000e+09
0.000000000000000000e+00,0.000000000000000000e+00,0.000000000000000000e+00,1.065353216000000000e+09
6.499999761581420898e-02,-8.999999761581420898e-01,5.770000219345092773e-01,1.065353216000000000e+09
3.700000047683715820e-02,-7.889999747276306152e-01,4.909999966621398926e-01,1.065353216000000000e+09
1.400000043213367462e-02,-7.039999961853027344e-01,4.259999990463256836e-01,1.065353216000000000e+09
-3.000000026077032089e-03,-6.570000052452087402e-01,3.860000073909759521e-01,1.065353216000000000e+09
8.500000089406967163e-02,-9.139999747276306152e-01,5.879999995231628418e-01,1.065353216000000000e+09
6.199999898672103882e-02,-8.989999890327453613e-01,5.600000023841857910e-01,1.065353216000000000e+09
3.400000184774398804e-02,-7.779999971389770508e-01,4.699999988079071045e-01,1.065353216000000000e+09
1.200000010430812836e-02,-6.899999976158142090e-01,4.040000140666961670e-01,1.065353216000000000e+09
1.070000007748603821e-01,-9.350000023841857910e-01,6.019999980926513672e-01,1.065353216000000000e+09
8.500000089406967163e-02,-9.250000119209289551e-01,5.770000219345092773e-01,1.065353216000000000e+09
5.900000035762786865e-02,-8.949999809265136719e-01,5.400000214576721191e-01,1.065353216000000000e+09
3.200000151991844177e-02,-7.710000276565551758e-01,4.499999880790710449e-01,1.065353216000000000e+09
4.129999876022338867e-01,-3.019999980926513672e+00,1.952999949455261230e+00,1.065353216000000000e+09
1.059999987483024597e-01,-9.269999861717224121e-01,5.789999961853027344e-01,1.065353216000000000e+09
8.299999684095382690e-02,-9.259999990463256836e-01,5.580000281333923340e-01,1.065353216000000000e+09
5.799999833106994629e-02,-8.870000243186950684e-01,5.170000195503234863e-01,1.065353216000000000e+09
4.769999980926513672e-01,-3.006000041961669922e+00,1.950000047683715820e+00,1.065353216000000000e+09
4.239999949932098389e-01,-3.101999998092651367e+00,1.940999984741210938e+00,1.065353216000000000e+09
1.030000001192092896e-01,-9.190000295639038086e-01,5.540000200271606445e-01,1.065353216000000000e+09
8.200000226497650146e-02,-9.160000085830688477e-01,5.320000052452087402e-01,1.065353216000000000e+09
5.410000085830688477e-01,-2.997999906539916992e+00,1.952000021934509277e+00,1.065353216000000000e+09
4.939999878406524658e-01,-3.102999925613403320e+00,1.945000052452087402e+00,1.065353216000000000e+09
4.370000064373016357e-01,-3.216000080108642578e+00,1.940000057220458984e+00,1.065353216000000000e+09
3.829999864101409912e-01,-3.368000030517578125e+00,1.955999970436096191e+00,1.065353216000000000e+09
6.029999852180480957e-01,-2.979000091552734375e+00,1.949000000953674316e+00,1.065353216000000000e+09
5.619999766349792480e-01,-3.092000007629394531e+00,1.944000005722045898e+00,1.065353216000000000e+09
5.139999985694885254e-01,-3.221999883651733398e+00,1.945999979972839355e+00,1.065353216000000000e+09
4.629999995231628418e-01,-3.355000019073486328e+00,1.947999954223632812e+00,1.065353216000000000e+09
6.660000085830688477e-01,-2.960000038146972656e+00,1.945000052452087402e+00,1.065353216000000000e+09
6.309999823570251465e-01,-3.082000017166137695e+00,1.944000005722045898e+00,1.065353216000000000e+09
5.870000123977661133e-01,-3.206000089645385742e+00,1.939000010490417480e+00,1.065353216000000000e+09
5.450000166893005371e-01,-3.359999895095825195e+00,1.950000047683715820e+00,1.065353216000000000e+09
7.279999852180480957e-01,-2.944999933242797852e+00,1.945999979972839355e+00,1.065353216000000000e+09
6.990000009536743164e-01,-3.065999984741210938e+00,1.942000031471252441e+00,1.065353216000000000e+09
6.629999876022338867e-01,-3.207000017166137695e+00,1.944000005722045898e+00,1.065353216000000000e+09
6.280000209808349609e-01,-3.361999988555908203e+00,1.952000021934509277e+00,1.065353216000000000e+09
7.879999876022338867e-01,-2.918999910354614258e+00,1.940000057220458984e+00,1.065353216000000000e+09
7.670000195503234863e-01,-3.053999900817871094e+00,1.942000031471252441e+00,1.065353216000000000e+09
7.379999756813049316e-01,-3.196000099182128906e+00,1.942000031471252441e+00,1.065353216000000000e+09
7.089999914169311523e-01,-3.349999904632568359e+00,1.947000026702880859e+00,1.065353216000000000e+09
8.500000238418579102e-01,-2.904000043869018555e+00,1.940999984741210938e+00,1.065353216000000000e+09
8.349999785423278809e-01,-3.039999961853027344e+00,1.942000031471252441e+00,1.065353216000000000e+09
8.119999766349792480e-01,-3.181999921798706055e+00,1.940000057220458984e+00,1.065353216000000000e+09
7.910000085830688477e-01,-3.339999914169311523e+00,1.945000052452087402e+00,1.065353216000000000e+09
9.120000004768371582e-01,-2.887000083923339844e+00,1.942000031471252441e+00,1.065353216000000000e+09
9.020000100135803223e-01,-3.019999980926513672e+00,1.939000010490417480e+00,1.065353216000000000e+09
8.880000114440917969e-01,-3.174000024795532227e+00,1.942000031471252441e+00,1.065353216000000000e+09
8.740000128746032715e-01,-3.336999893188476562e+00,1.947000026702880859e+00,1.065353216000000000e+09
9.729999899864196777e-01,-2.865000009536743164e+00,1.940999984741210938e+00,1.065353216000000000e+09
9.710000157356262207e-01,-3.005000114440917969e+00,1.940000057220458984e+00,1.065353216000000000e+09
9.629999995231628418e-01,-3.161000013351440430e+00,1.942000031471252441e+00,1.065353216000000000e+09
9.570000171661376953e-01,-3.325000047683715820e+00,1.945999979972839355e+00,1.065353216000000000e+09
1.031999945640563965e+00,-2.841000080108642578e+00,1.939000010490417480e+00,1.065353216000000000e+09
1.036999940872192383e+00,-2.983999967575073242e+00,1.939000010490417480e+00,1.065353216000000000e+09
1.037999987602233887e+00,-3.142999887466430664e+00,1.940999984741210938e+00,1.065353216000000000e+09
1.037999987602233887e+00,-3.309000015258789062e+00,1.944000005722045898e+00,1.065353216000000000e+09
1.093999981880187988e+00,-2.822999954223632812e+00,1.940999984741210938e+00,1.065353216000000000e+09
1.101999998092651367e+00,-2.957999944686889648e+00,1.935999989509582520e+00,1.065353216000000000e+09
1.111999988555908203e+00,-3.125000000000000000e+00,1.940000057220458984e+00,1.065353216000000000e+09
1.121000051498413086e+00,-3.295000076293945312e+00,1.944000005722045898e+00,1.065353216000000000e+09
1.151000022888183594e+00,-2.793999910354614258e+00,1.937999963760375977e+00,1.065353216000000000e+09
1.169000029563903809e+00,-2.937000036239624023e+00,1.934999942779541016e+00,1.065353216000000000e+09
1.185999989509582520e+00,-3.104000091552734375e+00,1.939000010490417480e+00,1.065353216000000000e+09
1.205000042915344238e+00,-3.279999971389770508e+00,1.944000005722045898e+00,1.065353216000000000e+09
1.207000017166137695e+00,-2.763000011444091797e+00,1.932999968528747559e+00,1.065353216000000000e+09
1.235999941825866699e+00,-2.917999982833862305e+00,1.937999963760375977e+00,1.065353216000000000e+09
1.256999969482421875e+00,-3.075999975204467773e+00,1.934000015258789062e+00,1.065353216000000000e+09
1.286999940872192383e+00,-3.260999917984008789e+00,1.944000005722045898e+00,1.065353216000000000e+09
1.269000053405761719e+00,-2.743000030517578125e+00,1.937000036239624023e+00,1.065353216000000000e+09
1.297999978065490723e+00,-2.885999917984008789e+00,1.932999968528747559e+00,1.065353216000000000e+09
1.328999996185302734e+00,-3.049999952316284180e+00,1.932000041007995605e+00,1.065353216000000000e+09
1.370000004768371582e+00,-3.240000009536743164e+00,1.944000005722045898e+00,1.065353216000000000e+09
1.325000047683715820e+00,-2.710999965667724609e+00,1.932999968528747559e+00,1.065353216000000000e+09
1.363000035285949707e+00,-2.857000112533569336e+00,1.930999994277954102e+00,1.065353216000000000e+09
1.404000043869018555e+00,-3.029000043869018555e+00,1.934000015258789062e+00,1.065353216000000000e+09
1.450000047683715820e+00,-3.213999986648559570e+00,1.940999984741210938e+00,1.065353216000000000e+09
1.381999969482421875e+00,-2.684000015258789062e+00,1.934000015258789062e+00,1.065353216000000000e+09
1.427999973297119141e+00,-2.831000089645385742e+00,1.930999994277954102e+00,1.065353216000000000e+09
1.475000023841857910e+00,-2.997999906539916992e+00,1.930999994277954102e+00,1.065353216000000000e+09
1.526000022888183594e+00,-3.174000024795532227e+00,1.932000041007995605e+00,1.065353216000000000e+09
1.440000057220458984e+00,-2.657000064849853516e+00,1.934999942779541016e+00,1.065353216000000000e+09
1.491000056266784668e+00,-2.799999952316284180e+00,1.929000020027160645e+00,1.065353216000000000e+09
1.546000003814697266e+00,-2.967000007629394531e+00,1.929000020027160645e+00,1.065353216000000000e+09
1.608000040054321289e+00,-3.150000095367431641e+00,1.934000015258789062e+00,1.065353216000000000e+09
1.496000051498413086e+00,-2.625000000000000000e+00,1.932999968528747559e+00,1.065353216000000000e+09
1.552000045776367188e+00,-2.766000032424926758e+00,1.927000045776367188e+00,1.065353216000000000e+09
1.616999983787536621e+00,-2.936000108718872070e+00,1.927999973297119141e+00,1.065353216000000000e+09
1.687000036239624023e+00,-3.118000030517578125e+00,1.932000041007995605e+00,1.065353216000000000e+09
1.547999978065490723e+00,-2.588000059127807617e+00,1.927999973297119141e+00,1.065353216000000000e+09
1.616000056266784668e+00,-2.734999895095825195e+00,1.927000045776367188e+00,1.065353216000000000e+09
1.685999989509582520e+00,-2.901000022888183594e+00,1.925999999046325684e+00,1.065353216000000000e+09
1.764000058174133301e+00,-3.081000089645385742e+00,1.927999973297119141e+00,1.065353216000000000e+09
1.605999946594238281e+00,-2.559999942779541016e+00,1.932000041007995605e+00,1.065353216000000000e+09
1.674999952316284180e+00,-2.697999954223632812e+00,1.924000024795532227e+00,1.065353216000000000e+09
1.753999948501586914e+00,-2.862999916076660156e+00,1.922000050544738770e+00,1.065353216000000000e+09
1.845000028610229492e+00,-3.049999952316284180e+00,1.929999947547912598e+00,1.065353216000000000e+09
1.657999992370605469e+00,-2.522000074386596680e+00,1.927999973297119141e+00,1.065353216000000000e+09
1.733999967575073242e+00,-2.658999919891357422e+00,1.919999957084655762e+00,1.065353216000000000e+09
1.825000047683715820e+00,-2.829999923706054688e+00,1.922999978065490723e+00,1.065353216000000000e+09
1.922000050544738770e+00,-3.009999990463256836e+00,1.927000045776367188e+00,1.065353216000000000e+09
1.708999991416931152e+00,-2.483999967575073242e+00,1.924999952316284180e+00,1.065353216000000000e+09
1.797000050544738770e+00,-2.628000020980834961e+00,1.922999978065490723e+00,1.065353216000000000e+09
1.896000027656555176e+00,-2.795000076293945312e+00,1.924000024795532227e+00,1.065353216000000000e+09
1.998999953269958496e+00,-2.970999956130981445e+00,1.925999999046325684e+00,1.065353216000000000e+09
1.761999964714050293e+00,-2.447999954223632812e+00,1.924000024795532227e+00,1.065353216000000000e+09
1.860999941825866699e+00,-2.595999956130981445e+00,1.925999999046325684e+00,1.065353216000000000e+09
1.960000038146972656e+00,-2.750999927520751953e+00,1.919999957084655762e+00,1.065353216000000000e+09
2.078000068664550781e+00,-2.933000087738037109e+00,1.927000045776367188e+00,1.065353216000000000e+09
1.810999989509582520e+00,-2.407999992370605469e+00,1.921000003814697266e+00,1.065353216000000000e+09
1.914000034332275391e+00,-2.548000097274780273e+00,1.919000029563903809e+00,1.065353216000000000e+09
2.029000043869018555e+00,-2.711999893188476562e+00,1.919999957084655762e+00,1.065353216000000000e+09
2.154000043869018555e+00,-2.888999938964843750e+00,1.924999952316284180e+00,1.065353216000000000e+09
1.865000009536743164e+00,-2.372999906539916992e+00,1.922000050544738770e+00,1.065353216000000000e+09
1.973000049591064453e+00,-2.507999897003173828e+00,1.917999982833862305e+00,1.065353216000000000e+09
2.095000028610229492e+00,-2.668999910354614258e+00,1.919000029563903809e+00,1.065353216000000000e+09
2.226999998092651367e+00,-2.841000080108642578e+00,1.922999978065490723e+00,1.065353216000000000e+09
1.916000008583068848e+00,-2.335000038146972656e+00,1.922000050544738770e+00,1.065353216000000000e+09
2.029999971389770508e+00,-2.467000007629394531e+00,1.917999982833862305e+00,1.065353216000000000e+09
2.160000085830688477e+00,-2.624000072479248047e+00,1.917999982833862305e+00,1.065353216000000000e+09
2.305000066757202148e+00,-2.799000024795532227e+00,1.924999952316284180e+00,1.065353216000000000e+09
1.965999960899353027e+00,-2.293999910354614258e+00,1.921000003814697266e+00,1.065353216000000000e+09
2.086999893188476562e+00,-2.424000024795532227e+00,1.917000055313110352e+00,1.065353216000000000e+09
2.223000049591064453e+00,-2.576999902725219727e+00,1.916000008583068848e+00,1.065353216000000000e+09
2.374000072479248047e+00,-2.744999885559082031e+00,1.921000003814697266e+00,1.065353216000000000e+09
2.016000032424926758e+00,-2.253999948501586914e+00,1.921000003814697266e+00,1.065353216000000000e+09
2.145999908447265625e+00,-2.382999897003173828e+00,1.919000029563903809e+00,1.065353216000000000e+09
2.286000013351440430e+00,-2.529000043869018555e+00,1.914999961853027344e+00,1.065353216000000000e+09
2.447999954223632812e+00,-2.696000099182128906e+00,1.921000003814697266e+00,1.065353216000000000e+09
2.068000078201293945e+00,-2.214999914169311523e+00,1.922000050544738770e+00,1.065353216000000000e+09
2.200000047683715820e+00,-2.336999893188476562e+00,1.917000055313110352e+00,1.065353216000000000e+09
2.355999946594238281e+00,-2.486000061035156250e+00,1.919000029563903809e+00,1.065353216000000000e+09
2.522000074386596680e+00,-2.645999908447265625e+00,1.924000024795532227e+00,1.065353216000000000e+09
2.111000061035156250e+00,-2.167999982833862305e+00,1.917999982833862305e+00,1.065353216000000000e+09
2.250000000000000000e+00,-2.286000013351440430e+00,1.911999940872192383e+00,1.065353216000000000e+09
2.415999889373779297e+00,-2.434000015258789062e+00,1.917000055313110352e+00,1.065353216000000000e+09
2.588999986648559570e+00,-2.588000059127807617e+00,1.921000003814697266e+00,1.065353216000000000e+09
2.161999940872192383e+00,-2.128000020980834961e+00,1.921000003814697266e+00,1.065353216000000000e+09
2.305999994277954102e+00,-2.240000009536743164e+00,1.914000034332275391e+00,1.065353216000000000e+09
2.473999977111816406e+00,-2.380000114440917969e+00,1.914999961853027344e+00,1.065353216000000000e+09
2.654999971389770508e+00,-2.529000043869018555e+00,1.917999982833862305e+00,1.065353216000000000e+09
2.203000068664550781e+00,-2.078000068664550781e+00,1.914999961853027344e+00,1.065353216000000000e+09
2.358999967575073242e+00,-2.193000078201293945e+00,1.914000034332275391e+00,1.065353216000000000e+09
2.529000043869018555e+00,-2.322999954223632812e+00,1.911000013351440430e+00,1.065353216000000000e+09
2.720999956130981445e+00,-2.469000101089477539e+00,1.917000055313110352e+00,1.065353216000000000e+09
2.253999948501586914e+00,-2.038000106811523438e+00,1.919000029563903809e+00,1.065353216000000000e+09
2.408999919891357422e+00,-2.141000032424926758e+00,1.911999940872192383e+00,1.065353216000000000e+09
2.589999914169311523e+00,-2.269000053405761719e+00,1.911999940872192383e+00,1.065353216000000000e+09
2.789000034332275391e+00,-2.410000085830688477e+00,1.917999982833862305e+00,1.065353216000000000e+09
2.292999982833862305e+00,-1.985999941825866699e+00,1.912999987602233887e+00,1.065353216000000000e+09
2.456000089645385742e+00,-2.086999893188476562e+00,1.909000039100646973e+00,1.065353216000000000e+09
2.648999929428100586e+00,-2.213999986648559570e+00,1.912999987602233887e+00,1.065353216000000000e+09
2.848000049591064453e+00,-2.342999935150146484e+00,1.912999987602233887e+00,1.065353216000000000e+09
2.339999914169311523e+00,-1.940999984741210938e+00,1.914999961853027344e+00,1.065353216000000000e+09
2.507999897003173828e+00,-2.036999940872192383e+00,1.909999966621398926e+00,1.065353216000000000e+09
2.697000026702880859e+00,-2.148999929428100586e+00,1.906000018119812012e+00,1.065353216000000000e+09
2.914999961853027344e+00,-2.282000064849853516e+00,1.914999961853027344e+00,1.065353216000000000e+09
2.384000062942504883e+00,-1.893000006675720215e+00,1.914999961853027344e+00,1.065353216000000000e+09
2.553999900817871094e+00,-1.980999946594238281e+00,1.906999945640563965e+00,1.065353216000000000e+09
2.750999927520751953e+00,-2.089999914169311523e+00,1.906000018119812012e+00,1.065353216000000000e+09
2.967000007629394531e+00,-2.209000110626220703e+00,1.907999992370605469e+00,1.065353216000000000e+09
2.421000003814697266e+00,-1.840000033378601074e+00,1.909999966621398926e+00,1.065353216000000000e+09
2.605999946594238281e+00,-1.929999947547912598e+00,1.909999966621398926e+00,1.065353216000000000e+09
2.803999900817871094e+00,-2.029000043869018555e+00,1.904000043869018555e+00,1.065353216000000000e+09
3.032999992370605469e+00,-2.147000074386596680e+00,1.911999940872192383e+00,1.065353216000000000e+09
2.466000080108642578e+00,-1.792999982833862305e+00,1.911999940872192383e+00,1.065353216000000000e+09
2.644999980926513672e+00,-1.868999958038330078e+00,1.904000043869018555e+00,1.065353216000000000e+09
2.859999895095825195e+00,-1.968999981880187988e+00,1.906999945640563965e+00,1.065353216000000000e+09
3.084000110626220703e+00,-2.072000026702880859e+00,1.906999945640563965e+00,1.065353216000000000e+09
2.506999969482421875e+00,-1.741999983787536621e+00,1.911999940872192383e+00,1.065353216000000000e+09
2.687999963760375977e+00,-1.810999989509582520e+00,1.901999950408935547e+00,1.065353216000000000e+09
2.911000013351440430e+00,-1.906999945640563965e+00,1.906999945640563965e+00,1.065353216000000000e+09
3.141999959945678711e+00,-2.002000093460083008e+00,1.906999945640563965e+00,1.065353216000000000e+09
2.546000003814697266e+00,-1.690000057220458984e+00,1.911000013351440430e+00,1.065353216000000000e+09
2.740999937057495117e+00,-1.758999943733215332e+00,1.907999992370605469e+00,1.065353216000000000e+09
2.960000038146972656e+00,-1.840999960899353027e+00,1.904999971389770508e+00,1.065353216000000000e+09
3.194999933242797852e+00,-1.929000020027160645e+00,1.906000018119812012e+00,1.065353216000000000e+09
2.585999965667724609e+00,-1.638000011444091797e+00,1.909999966621398926e+00,1.065353216000000000e+09
2.779000043869018555e+00,-1.697000026702880859e+00,1.904000043869018555e+00,1.065353216000000000e+09
3.006000041961669922e+00,-1.773000001907348633e+00,1.904000043869018555e+00,1.065353216000000000e+09
3.246999979019165039e+00,-1.855000019073486328e+00,1.904999971389770508e+00,1.065353216000000000e+09
2.619999885559082031e+00,-1.582000017166137695e+00,1.906999945640563965e+00,1.065353216000000000e+09
2.818000078201293945e+00,-1.634999990463256836e+00,1.901000022888183594e+00,1.065353216000000000e+09
3.049999952316284180e+00,-1.705000042915344238e+00,1.901999950408935547e+00,1.065353216000000000e+09
3.295000076293945312e+00,-1.776999950408935547e+00,1.901999950408935547e+00,1.065353216000000000e+09
2.654999971389770508e+00,-1.526999950408935547e+00,1.904999971389770508e+00,1.065353216000000000e+09
2.859999895095825195e+00,-1.575000047683715820e+00,1.901000022888183594e+00,1.065353216000000000e+09
3.098000049591064453e+00,-1.638000011444091797e+00,1.902999997138977051e+00,1.065353216000000000e+09
3.345999956130981445e+00,-1.702000021934509277e+00,1.902999997138977051e+00,1.065353216000000000e+09
2.694000005722045898e+00,-1.473999977111816406e+00,1.906000018119812012e+00,1.065353216000000000e+09
2.900000095367431641e+00,-1.514000058174133301e+00,1.901999950408935547e+00,1.065353216000000000e+09
3.134999990463256836e+00,-1.565000057220458984e+00,1.899000048637390137e+00,1.065353216000000000e+09
3.394000053405761719e+00,-1.623999953269958496e+00,1.902999997138977051e+00,1.065353216000000000e+09
2.727999925613403320e+00,-1.417000055313110352e+00,1.904999971389770508e+00,1.065353216000000000e+09
2.940000057220458984e+00,-1.452000021934509277e+00,1.901999950408935547e+00,1.065353216000000000e+09
3.180000066757202148e+00,-1.496000051498413086e+00,1.901000022888183594e+00,1.065353216000000000e+09
3.441999912261962891e+00,-1.544999957084655762e+00,1.904000043869018555e+00,1.065353216000000000e+09
2.763000011444091797e+00,-1.360999941825866699e+00,1.904999971389770508e+00,1.065353216000000000e+09
2.974999904632568359e+00,-1.386999964714050293e+00,1.899999976158142090e+00,1.065353216000000000e+09
3.216000080108642578e+00,-1.422999978065490723e+00,1.898000001907348633e+00,1.065353216000000000e+09
3.480000019073486328e+00,-1.463000059127807617e+00,1.901000022888183594e+00,1.065353216000000000e+09
2.796000003814697266e+00,-1.302999973297119141e+00,1.904000043869018555e+00,1.065353216000000000e+09
3.007999897003173828e+00,-1.322000026702880859e+00,1.898000001907348633e+00,1.065353216000000000e+09
3.249000072479248047e+00,-1.347000002861022949e+00,1.894999980926513672e+00,1.065353216000000000e+09
3.513999938964843750e+00,-1.376999974250793457e+00,1.896999955177307129e+00,1.065353216000000000e+09
2.832999944686889648e+00,-1.248000025749206543e+00,1.906999945640563965e+00,1.065353216000000000e+09
3.048000097274780273e+00,-1.258000016212463379e+00,1.901000022888183594e+00,1.065353216000000000e+09
3.296000003814697266e+00,-1.276999950408935547e+00,1.899999976158142090e+00,1.065353216000000000e+09
3.556999921798706055e+00,-1.296000003814697266e+00,1.899000048637390137e+00,1.065353216000000000e+09
2.857000112533569336e+00,-1.184999942779541016e+00,1.901999950408935547e+00,1.065353216000000000e+09
3.081000089645385742e+00,-1.192000031471252441e+00,1.901000022888183594e+00,1.065353216000000000e+09
3.328999996185302734e+00,-1.200999975204467773e+00,1.898000001907348633e+00,1.065353216000000000e+09
3.585000038146972656e+00,-1.208999991416931152e+00,1.893000006675720215e+00,1.065353216000000000e+09
2.897000074386596680e+00,-1.129999995231628418e+00,1.907999992370605469e+00,1.065353216000000000e+09
3.109999895095825195e+00,-1.123000025749206543e+00,1.899000048637390137e+00,1.065353216000000000e+09
3.352999925613403320e+00,-1.123000025749206543e+00,1.893000006675720215e+00,1.065353216000000000e+09
3.625999927520751953e+00,-1.126000046730041504e+00,1.896999955177307129e+00,1.065353216000000000e+09
2.923000097274780273e+00,-1.067999958992004395e+00,1.904999971389770508e+00,1.065353216000000000e+09
3.141999959945678711e+00,-1.055999994277954102e+00,1.899000048637390137e+00,1.065353216000000000e+09
3.388000011444091797e+00,-1.047000050544738770e+00,1.894000053405761719e+00,1.065353216000000000e+09
3.661999940872192383e+00,-1.041000008583068848e+00,1.898000001907348633e+00,1.065353216000000000e+09
2.944000005722045898e+00,-1.003999948501586914e+00,1.899999976158142090e+00,1.065353216000000000e+09
3.171000003814697266e+00,-9.869999885559082031e-01,1.899000048637390137e+00,1.065353216000000000e+09
3.423000097274780273e+00,-9.710000157356262207e-01,1.896999955177307129e+00,1.065353216000000000e+09
3.686000108718872070e+00,-9.520000219345092773e-01,1.894999980926513672e+00,1.065353216000000000e+09
2.967000007629394531e+00,-9.409999847412109375e-01,1.896999955177307129e+00,1.065353216000000000e+09
3.197999954223632812e+00,-9.169999957084655762e-01,1.898000001907348633e+00,1.065353216000000000e+09
3.447000026702880859e+00,-8.909999728202819824e-01,1.894999980926513672e+00,1.065353216000000000e+09
3.717000007629394531e+00,-8.650000095367431641e-01,1.896000027656555176e+00,1.065353216000000000e+09
2.994999885559082031e+00,-8.790000081062316895e-01,1.898000001907348633e+00,1.065353216000000000e+09
3.224999904632568359e+00,-8.460000157356262207e-01,1.898000001907348633e+00,1.065353216000000000e+09
3.476999998092651367e+00,-8.119999766349792480e-01,1.896000027656555176e+00,1.065353216000000000e+09
3.742000102996826172e+00,-7.749999761581420898e-01,1.894999980926513672e+00,1.065353216000000000e+09
3.019000053405761719e+00,-8.149999976158142090e-01,1.896000027656555176e+00,1.065353216000000000e+09
3.249000072479248047e+00,-7.749999761581420898e-01,1.896999955177307129e+00,1.065353216000000000e+09
3.497999906539916992e+00,-7.310000061988830566e-01,1.894999980926513672e+00,1.065353216000000000e+09
3.756999969482421875e+00,-6.850000023841857910e-01,1.891000032424926758e+00,1.065353216000000000e+09
3.042999982833862305e+00,-7.509999871253967285e-01,1.896000027656555176e+00,1.065353216000000000e+09
3.276000022888183594e+00,-7.039999961853027344e-01,1.899999976158142090e+00,1.065353216000000000e+09
3.512000083923339844e+00,-6.489999890327453613e-01,1.889999985694885254e+00,1.065353216000000000e+09
3.780999898910522461e+00,-5.960000157356262207e-01,1.891999959945678711e+00,1.065353216000000000e+09
3.065000057220458984e+00,-6.869999766349792480e-01,1.896000027656555176e+00,1.065353216000000000e+09
3.293999910354614258e+00,-6.309999823570251465e-01,1.896999955177307129e+00,1.065353216000000000e+09
3.542000055313110352e+00,-5.699999928474426270e-01,1.894999980926513672e+00,1.065353216000000000e+09
3.799999952316284180e+00,-5.049999952316284180e-01,1.891999959945678711e+00,1.065353216000000000e+09
3.084000110626220703e+00,-6.209999918937683105e-01,1.894000053405761719e+00,1.065353216000000000e+09
3.319999933242797852e+00,-5.590000152587890625e-01,1.901000022888183594e+00,1.065353216000000000e+09
3.562999963760375977e+00,-4.880000054836273193e-01,1.896000027656555176e+00,1.065353216000000000e+09
3.819999933242797852e+00,-4.140000045299530029e-01,1.894000053405761719e+00,1.065353216000000000e+09
3.111000061035156250e+00,-5.569999814033508301e-01,1.898000001907348633e+00,1.065353216000000000e+09
3.334000110626220703e+00,-4.839999973773956299e-01,1.896999955177307129e+00,1.065353216000000000e+09
3.575000047683715820e+00,-4.050000011920928955e-01,1.893000006675720215e+00,1.065353216000000000e+09
3.832999944686889648e+00,-3.230000138282775879e-01,1.893000006675720215e+00,1.065353216000000000e+09
3.127000093460083008e+00,-4.900000095367431641e-01,1.896000027656555176e+00,1.065353216000000000e+09
3.346999883651733398e+00,-4.090000092983245850e-01,1.894999980926513672e+00,1.065353216000000000e+09
3.595000028610229492e+00,-3.230000138282775879e-01,1.896000027656555176e+00,1.065353216000000000e+09
3.848999977111816406e+00,-2.300000041723251343e-01,1.894999980926513672e+00,1.065353216000000000e+09
3.142999887466430664e+00,-4.219999909400939941e-01,1.894000053405761719e+00,1.065353216000000000e+09
3.368999958038330078e+00,-3.350000083446502686e-01,1.898000001907348633e+00,1.065353216000000000e+09
3.605000019073486328e+00,-2.380000054836273193e-01,1.894000053405761719e+00,1.065353216000000000e+09
3.844000101089477539e+00,-1.379999965429306030e-01,1.888000011444091797e+00,1.065353216000000000e+09
3.161999940872192383e+00,-3.549999892711639404e-01,1.894999980926513672e+00,1.065353216000000000e+09
3.382999897003173828e+00,-2.590000033378601074e-01,1.898000001907348633e+00,1.065353216000000000e+09
3.612999916076660156e+00,-1.539999991655349731e-01,1.893000006675720215e+00,1.065353216000000000e+09
3.858000040054321289e+00,-4.500000178813934326e-02,1.891999959945678711e+00,1.065353216000000000e+09
3.174000024795532227e+00,-2.860000133514404297e-01,1.893000006675720215e+00,1.065353216000000000e+09
3.394000053405761719e+00,-1.829999983310699463e-01,1.896999955177307129e+00,1.065353216000000000e+09
3.625999927520751953e+00,-7.000000029802322388e-02,1.894999980926513672e+00,1.065353216000000000e+09
3.862999916076660156e+00,4.699999839067459106e-02,1.891999959945678711e+00,1.065353216000000000e+09
3.193000078201293945e+00,-2.169999927282333374e-01,1.896000027656555176e+00,1.065353216000000000e+09
3.400000095367431641e+00,-1.059999987483024597e-01,1.894999980926513672e+00,1.065353216000000000e+09
3.631999969482421875e+00,1.400000043213367462e-02,1.894999980926513672e+00,1.065353216000000000e+09
3.858999967575073242e+00,1.389999985694885254e-01,1.889000058174133301e+00,1.065353216000000000e+09
3.198999881744384766e+00,-1.469999998807907104e-01,1.891999959945678711e+00,1.065353216000000000e+09
3.404999971389770508e+00,-2.899999916553497314e-02,1.893000006675720215e+00,1.065353216000000000e+09
3.628999948501586914e+00,9.799999743700027466e-02,1.891000032424926758e+00,1.065353216000000000e+09
3.859999895095825195e+00,2.329999953508377075e-01,1.889999985694885254e+00,1.065353216000000000e+09
3.216000080108642578e+00,-7.800000160932540894e-02,1.894999980926513672e+00,1.065353216000000000e+09
3.411999940872192383e+00,4.699999839067459106e-02,1.893000006675720215e+00,1.065353216000000000e+09
3.631000041961669922e+00,1.829999983310699463e-01,1.891000032424926758e+00,1.065353216000000000e+09
3.861000061035156250e+00,3.260000050067901611e-01,1.891999959945678711e+00,1.065353216000000000e+09
3.220999956130981445e+00,-7.000000216066837311e-03,1.891999959945678711e+00,1.065353216000000000e+09
