x,y,z,intensity
7.000000216066837311e-03,-1.000000014901161194e-01,5.900000035762786865e-02,1.065353216000000000e+09
4.999999888241291046e-03,-1.010000035166740417e-01,5.799999833106994629e-02,1.065353216000000000e+09
0.000000000000000000e+00,0.000000000000000000e+00,0.000000000000000000e+00,1.065353216000000000e+09
0.000000000000000000e+00,0.000000000000000000e+00,0.000000000000000000e+00,1.065353216000000000e+09
0.000000000000000000e+00,0.000000000000000000e+00,0.000000000000000000e+00,1.065353216000000000e+09
0.000000000000000000e+00,0.000000000000000000e+00,0.000000000000000000e+00,1.065353216000000000e+09
4.000000189989805222e-03,-9.300000220537185669e-02,5.099999904632568359e-02,1.065353216000000000e+09
1.200000010430812836e-02,-8.500000089406967163e-02,5.200000107288360596e-02,1.065353216000000000e+09
1.099999994039535522e-02,-9.499999880790710449e-02,5.600000172853469849e-02,1.065353216000000000e+09
8.999999612569808960e-03,-9.799999743700027466e-02,5.600000172853469849e-02,1.065353216000000000e+09
0.000000000000000000e+00,0.000000000000000000e+00,0.000000000000000000e+00,1.065353216000000000e+09
0.000000000000000000e+00,0.000000000000000000e+00,0.000000000000000000e+00,1.065353216000000000e+09
0.000000000000000000e+00,0.000000000000000000e+00,0.000000000000000000e+00,1.065353216000000000e+09
0.000000000000000000e+00,0.000000000000000000e+00,0.000000000000000000e+00,1.065353216000000000e+09
8.999999612569808960e-03,-9.300000220537185669e-02,5.099999904632568359e-02,1.065353216000000000e+09
2.300000004470348358e-02,-1.199999973177909851e-01,7.400000095367431641e-02,1.065353216000000000e+09
1.799999922513961792e-02,-1.080000028014183044e-01,6.400000303983688354e-02,1.065353216000000000e+09
1.300000026822090149e-02,-9.600000083446502686e-02,5.499999970197677612e-02,1.065353216000000000e+09
0.000000000000000000e+00,0.000000000000000000e+00,0.000000000000000000e+00,1.065353216000000000e+09
0.000000000000000000e+00,0.000000000000000000e+00,0.000000000000000000e+00,1.065353216000000000e+09
0.000000000000000000e+00,0.000000000000000000e+00,0.000000000000000000e+00,1.065353216000000000e+09
0.000000000000000000e+00,0.000000000000000000e+00,0.000000000000000000e+00,1.065353216000000000e+09
1.300000026822090149e-02,-9.200000017881393433e-02,5.000000074505805969e-02,1.065353216000000000e+09
1.679999977350234985e-01,-7.129999995231628418e-01,4.449999928474426270e-01,1.065353216000000000e+09
1.529999971389770508e-01,-7.200000286102294922e-01,4.300000071525573730e-01,1.065353216000000000e+09
2.600000053644180298e-02,-1.369999945163726807e-01,7.900000363588333130e-02,1.065353216000000000e+09
0.000000000000000000e+00,0.000000000000000000e+00,0.000000000000000000e+00,1.065353216000000000e+09
1.780000030994415283e-01,-6.899999976158142090e-01,4.329999983310699463e-01,1.065353216000000000e+09
1.679999977350234985e-01,-7.110000252723693848e-01,4.269999861717224121e-01,1.065353216000000000e+09
0.000000000000000000e+00,0.000000000000000000e+00,0.000000000000000000e+00,1.065353216000000000e+09
2.899999916553497314e-02,-1.519999951124191284e-01,8.399999886751174927e-02,1.065353216000000000e+09
1.870000064373016357e-01,-6.639999747276306152e-01,4.189999997615814209e-01,1.065353216000000000e+09
1.759999990463256836e-01,-6.759999990463256836e-01,4.070000052452087402e-01,1.065353216000000000e+09
1.669999957084655762e-01,-6.959999799728393555e-01,4.020000100135803223e-01,1.065353216000000000e+09
0.000000000000000000e+00,0.000000000000000000e+00,0.000000000000000000e+00,1.065353216000000000e+09
2.010000050067901611e-01,-6.610000133514404297e-01,4.199999868869781494e-01,1.065353216000000000e+09
1.889999955892562866e-01,-6.669999957084655762e-01,4.040000140666961670e-01,1.065353216000000000e+09
1.809999942779541016e-01,-6.830000281333923340e-01,3.959999978542327881e-01,1.065353216000000000e+09
3.599999845027923584e-02,-1.459999978542327881e-01,7.999999821186065674e-02,1.065353216000000000e+09
2.220000028610229492e-01,-6.769999861717224121e-01,4.329999983310699463e-01,1.065353216000000000e+09
2.090000063180923462e-01,-6.759999990463256836e-01,4.120000004768371582e-01,1.065353216000000000e+09
1.969999969005584717e-01,-6.790000200271606445e-01,3.950000107288360596e-01,1.065353216000000000e+09
0.000000000000000000e+00,0.000000000000000000e+00,0.000000000000000000e+00,1.065353216000000000e+09
2.280000001192092896e-01,-6.470000147819519043e-01,4.169999957084655762e-01,1.065353216000000000e+09
2.220000028610229492e-01,-6.650000214576721191e-01,4.079999923706054688e-01,1.065353216000000000e+09
2.099999934434890747e-01,-6.669999957084655762e-01,3.899999856948852539e-01,1.065353216000000000e+09
1.990000009536743164e-01,-6.660000085830688477e-01,3.700000047683715820e-01,1.065353216000000000e+09
1.550000011920928955e-01,-4.120000004768371582e-01,2.680000066757202148e-01,1.065353216000000000e+09
1.480000019073486328e-01,-4.120000004768371582e-01,2.540000081062316895e-01,1.065353216000000000e+09
1.389999985694885254e-01,-4.070000052452087402e-01,2.389999926090240479e-01,1.065353216000000000e+09
1.369999945163726807e-01,-4.219999909400939941e-01,2.349999994039535522e-01,1.065353216000000000e+09
8.200000226497650146e-02,-2.039999961853027344e-01,1.340000033378601074e-01,1.065353216000000000e+09
7.400000095367431641e-02,-1.940000057220458984e-01,1.209999993443489075e-01,1.065353216000000000e+09
6.800000369548797607e-02,-1.870000064373016357e-01,1.099999994039535522e-01,1.065353216000000000e+09
6.199999898672103882e-02,-1.780000030994415283e-01,1.000000014901161194e-01,1.065353216000000000e+09
0.000000000000000000e+00,0.000000000000000000e+00,0.000000000000000000e+00,1.065353216000000000e+09
0.000000000000000000e+00,0.000000000000000000e+00,0.000000000000000000e+00,1.065353216000000000e+09
0.000000000000000000e+00,0.000000000000000000e+00,0.000000000000000000e+00,1.065353216000000000e+09
0.000000000000000000e+00,0.000000000000000000e+00,0.000000000000000000e+00,1.065353216000000000e+09
0.000000000000000000e+00,0.000000000000000000e+00,0.000000000000000000e+00,1.065353216000000000e+09
3.500000014901161194e-02,-7.999999821186065674e-02,5.099999904632568359e-02,1.065353216000000000e+09
3.500000014901161194e-02,-8.299999684095382690e-02,5.000000074505805969e-02,1.065353216000000000e+09
3.299999982118606567e-02,-8.200000226497650146e-02,4.600000008940696716e-02,1.065353216000000000e+09
0.000000000000000000e+00,0.000000000000000000e+00,0.000000000000000000e+00,1.065353216000000000e+09
0.000000000000000000e+00,0.000000000000000000e+00,0.000000000000000000e+00,1.065353216000000000e+09
1.164999961853027344e+00,-2.592999935150146484e+00,1.567999958992004395e+00,1.065353216000000000e+09
1.189000010490417480e+00,-2.727999925613403320e+00,1.559000015258789062e+00,1.065353216000000000e+09
0.000000000000000000e+00,0.000000000000000000e+00,0.000000000000000000e+00,1.065353216000000000e+09
0.000000000000000000e+00,0.000000000000000000e+00,0.000000000000000000e+00,1.065353216000000000e+09
1.231999993324279785e+00,-2.578000068664550781e+00,1.572000026702880859e+00,1.065353216000000000e+09
1.258999943733215332e+00,-2.706000089645385742e+00,1.557999968528747559e+00,1.065353216000000000e+09
1.218000054359436035e+00,-2.289999961853027344e+00,1.580000042915344238e+00,1.065353216000000000e+09
1.243999958038330078e+00,-2.395999908447265625e+00,1.559000015258789062e+00,1.065353216000000000e+09
1.279999971389770508e+00,-2.526000022888183594e+00,1.554999947547912598e+00,1.065353216000000000e+09
1.309999942779541016e+00,-2.645999908447265625e+00,1.536999940872192383e+00,1.065353216000000000e+09
1.256999969482421875e+00,-2.244999885559082031e+00,1.567000031471252441e+00,1.065353216000000000e+09
1.294000029563903809e+00,-2.361000061035156250e+00,1.554000020027160645e+00,1.065353216000000000e+09
1.327000021934509277e+00,-2.473999977111816406e+00,1.537999987602233887e+00,1.065353216000000000e+09
1.360000014305114746e+00,-2.586999893188476562e+00,1.516999959945678711e+00,1.065353216000000000e+09
1.294999957084655762e+00,-2.200999975204467773e+00,1.554999947547912598e+00,1.065353216000000000e+09
1.333999991416931152e+00,-2.311000108718872070e+00,1.537999987602233887e+00,1.065353216000000000e+09
1.368999958038330078e+00,-2.415999889373779297e+00,1.519000053405761719e+00,1.065353216000000000e+09
1.409000039100646973e+00,-2.529000043869018555e+00,1.498000025749206543e+00,1.065353216000000000e+09
1.327999949455261230e+00,-2.151000022888183594e+00,1.539999961853027344e+00,1.065353216000000000e+09
1.370000004768371582e+00,-2.253999948501586914e+00,1.519000053405761719e+00,1.065353216000000000e+09
1.411999940872192383e+00,-2.361000061035156250e+00,1.501999974250793457e+00,1.065353216000000000e+09
1.452999949455261230e+00,-2.466000080108642578e+00,1.476999998092651367e+00,1.065353216000000000e+09
1.361999988555908203e+00,-2.102999925613403320e+00,1.526000022888183594e+00,1.065353216000000000e+09
1.406999945640563965e+00,-2.203000068664550781e+00,1.503999948501586914e+00,1.065353216000000000e+09
1.455000042915344238e+00,-2.309000015258789062e+00,1.485999941825866699e+00,1.065353216000000000e+09
1.496999979019165039e+00,-2.404999971389770508e+00,1.457000017166137695e+00,1.065353216000000000e+09
1.396999955177307129e+00,-2.059999942779541016e+00,1.516000032424926758e+00,1.065353216000000000e+09
1.442999958992004395e+00,-2.151999950408935547e+00,1.488999962806701660e+00,1.065353216000000000e+09
1.491000056266784668e+00,-2.249000072479248047e+00,1.467000007629394531e+00,1.065353216000000000e+09
1.547000050544738770e+00,-2.355000019073486328e+00,1.445000052452087402e+00,1.065353216000000000e+09
1.425999999046325684e+00,-2.007999897003173828e+00,1.498999953269958496e+00,1.065353216000000000e+09
1.475999951362609863e+00,-2.098000049591064453e+00,1.473000049591064453e+00,1.065353216000000000e+09
1.531999945640563965e+00,-2.197000026702880859e+00,1.452999949455261230e+00,1.065353216000000000e+09
1.590999960899353027e+00,-2.298000097274780273e+00,1.429000020027160645e+00,1.065353216000000000e+09
1.455999970436096191e+00,-1.960000038146972656e+00,1.485999941825866699e+00,1.065353216000000000e+09
1.511999964714050293e+00,-2.049000024795532227e+00,1.460000038146972656e+00,1.065353216000000000e+09
1.567999958992004395e+00,-2.140000104904174805e+00,1.437000036239624023e+00,1.065353216000000000e+09
1.626000046730041504e+00,-2.230999946594238281e+00,1.407999992370605469e+00,1.065353216000000000e+09
1.488000035285949707e+00,-1.917000055313110352e+00,1.476999998092651367e+00,1.065353216000000000e+09
1.547000050544738770e+00,-2.000000000000000000e+00,1.449000000953674316e+00,1.065353216000000000e+09
1.601999998092651367e+00,-2.082000017166137695e+00,1.419999957084655762e+00,1.065353216000000000e+09
1.671000003814697266e+00,-2.180000066757202148e+00,1.396999955177307129e+00,1.065353216000000000e+09
1.519000053405761719e+00,-1.873000025749206543e+00,1.467000007629394531e+00,1.065353216000000000e+09
1.577999949455261230e+00,-1.950000047683715820e+00,1.434999942779541016e+00,1.065353216000000000e+09
1.636000037193298340e+00,-2.026000022888183594e+00,1.404999971389770508e+00,1.065353216000000000e+09
1.707000017166137695e+00,-2.118000030517578125e+00,1.379999995231628418e+00,1.065353216000000000e+09
1.542999982833862305e+00,-1.822000026702880859e+00,1.452000021934509277e+00,1.065353216000000000e+09
1.613000035285949707e+00,-1.904000043869018555e+00,1.425999999046325684e+00,1.065353216000000000e+09
1.669999957084655762e+00,-1.972000002861022949e+00,1.391999959945678711e+00,1.065353216000000000e+09
1.738000035285949707e+00,-2.052000045776367188e+00,1.360999941825866699e+00,1.065353216000000000e+09
1.570999979972839355e+00,-1.776000022888183594e+00,1.440999984741210938e+00,1.065353216000000000e+09
1.639000058174133301e+00,-1.848999977111816406e+00,1.411000013351440430e+00,1.065353216000000000e+09
1.707999944686889648e+00,-1.924000024795532227e+00,1.383000016212463379e+00,1.065353216000000000e+09
1.779999971389770508e+00,-2.000999927520751953e+00,1.351999998092651367e+00,1.065353216000000000e+09
1.598000049591064453e+00,-1.730999946594238281e+00,1.430999994277954102e+00,1.065353216000000000e+09
1.661000013351440430e+00,-1.791000008583068848e+00,1.393000006675720215e+00,1.065353216000000000e+09
1.738999962806701660e+00,-1.868000030517578125e+00,1.368999958038330078e+00,1.065353216000000000e+09
1.812999963760375977e+00,-1.940000057220458984e+00,1.337000012397766113e+00,1.065353216000000000e+09
1.623999953269958496e+00,-1.684000015258789062e+00,1.421000003814697266e+00,1.065353216000000000e+09
1.697000026702880859e+00,-1.748999953269958496e+00,1.388000011444091797e+00,1.065353216000000000e+09
1.769999980926513672e+00,-1.815000057220458984e+00,1.356999993324279785e+00,1.065353216000000000e+09
1.848000049591064453e+00,-1.883000016212463379e+00,1.324000000953674316e+00,1.065353216000000000e+09
1.648000001907348633e+00,-1.638000011444091797e+00,1.409999966621398926e+00,1.065353216000000000e+09
1.725000023841857910e+00,-1.700000047683715820e+00,1.378000020980834961e+00,1.065353216000000000e+09
1.797000050544738770e+00,-1.758000016212463379e+00,1.343999981880187988e+00,1.065353216000000000e+09
1.879999995231628418e+00,-1.825000047683715820e+00,1.312000036239624023e+00,1.065353216000000000e+09
1.674000024795532227e+00,-1.593999981880187988e+00,1.401999950408935547e+00,1.065353216000000000e+09
1.748999953269958496e+00,-1.649000048637390137e+00,1.366000056266784668e+00,1.065353216000000000e+09
1.828999996185302734e+00,-1.707999944686889648e+00,1.335000038146972656e+00,1.065353216000000000e+09
1.914000034332275391e+00,-1.769000053405761719e+00,1.302999973297119141e+00,1.065353216000000000e+09
1.695999979972839355e+00,-1.547000050544738770e+00,1.391000032424926758e+00,1.065353216000000000e+09
1.776000022888183594e+00,-1.600000023841857910e+00,1.356999993324279785e+00,1.065353216000000000e+09
1.851999998092651367e+00,-1.649999976158142090e+00,1.322000026702880859e+00,1.065353216000000000e+09
1.940000057220458984e+00,-1.707000017166137695e+00,1.287999987602233887e+00,1.065353216000000000e+09
1.720999956130981445e+00,-1.504999995231628418e+00,1.384999990463256836e+00,1.065353216000000000e+09
1.797000050544738770e+00,-1.547000050544738770e+00,1.345000028610229492e+00,1.065353216000000000e+09
1.879999995231628418e+00,-1.597000002861022949e+00,1.312000036239624023e+00,1.065353216000000000e+09
1.970999956130981445e+00,-1.651999950408935547e+00,1.279000043869018555e+00,1.065353216000000000e+09
1.738999962806701660e+00,-1.455000042915344238e+00,1.373000025749206543e+00,1.065353216000000000e+09
1.824000000953674316e+00,-1.500000000000000000e+00,1.338000059127807617e+00,1.065353216000000000e+09
1.907999992370605469e+00,-1.546000003814697266e+00,1.304000020027160645e+00,1.065353216000000000e+09
1.998000025749206543e+00,-1.592000007629394531e+00,1.268000006675720215e+00,1.065353216000000000e+09
1.761999964714050293e+00,-1.411000013351440430e+00,1.366000056266784668e+00,1.065353216000000000e+09
1.845999956130981445e+00,-1.450000047683715820e+00,1.327999949455261230e+00,1.065353216000000000e+09
1.930999994277954102e+00,-1.490000009536743164e+00,1.292000055313110352e+00,1.065353216000000000e+09
2.019999980926513672e+00,-1.531000018119812012e+00,1.254999995231628418e+00,1.065353216000000000e+09
1.784999966621398926e+00,-1.368000030517578125e+00,1.360000014305114746e+00,1.065353216000000000e+09
1.871000051498413086e+00,-1.402999997138977051e+00,1.320999979972839355e+00,1.065353216000000000e+09
1.952000021934509277e+00,-1.434999942779541016e+00,1.281999945640563965e+00,1.065353216000000000e+09
2.042000055313110352e+00,-1.470999956130981445e+00,1.243999958038330078e+00,1.065353216000000000e+09
1.804999947547912598e+00,-1.322999954223632812e+00,1.351999998092651367e+00,1.065353216000000000e+09
1.888000011444091797e+00,-1.350000023841857910e+00,1.309999942779541016e+00,1.065353216000000000e+09
1.978000044822692871e+00,-1.383999943733215332e+00,1.274999976158142090e+00,1.065353216000000000e+09
2.065999984741210938e+00,-1.412999987602233887e+00,1.235000014305114746e+00,1.065353216000000000e+09
1.820999979972839355e+00,-1.276000022888183594e+00,1.342000007629394531e+00,1.065353216000000000e+09
1.911999940872192383e+00,-1.304000020027160645e+00,1.304000020027160645e+00,1.065353216000000000e+09
1.993999958038330078e+00,-1.327000021934509277e+00,1.264000058174133301e+00,1.065353216000000000e+09
2.089999914169311523e+00,-1.355999946594238281e+00,1.226999998092651367e+00,1.065353216000000000e+09
1.838000059127807617e+00,-1.230000019073486328e+00,1.332999944686889648e+00,1.065353216000000000e+09
1.929000020027160645e+00,-1.253000020980834961e+00,1.294999957084655762e+00,1.065353216000000000e+09
2.015000104904174805e+00,-1.274000048637390137e+00,1.256000041961669922e+00,1.065353216000000000e+09
2.111999988555908203e+00,-1.297999978065490723e+00,1.218000054359436035e+00,1.065353216000000000e+09
1.856999993324279785e+00,-1.185999989509582520e+00,1.327000021934509277e+00,1.065353216000000000e+09
1.950000047683715820e+00,-1.205000042915344238e+00,1.289000034332275391e+00,1.065353216000000000e+09
2.036999940872192383e+00,-1.222000002861022949e+00,1.248999953269958496e+00,1.065353216000000000e+09
2.134000062942504883e+00,-1.241999983787536621e+00,1.210999965667724609e+00,1.065353216000000000e+09
1.873000025749206543e+00,-1.141000032424926758e+00,1.320000052452087402e+00,1.065353216000000000e+09
1.968000054359436035e+00,-1.156000018119812012e+00,1.281999945640563965e+00,1.065353216000000000e+09
2.056999921798706055e+00,-1.169000029563903809e+00,1.241999983787536621e+00,1.065353216000000000e+09
2.153000116348266602e+00,-1.184000015258789062e+00,1.203999996185302734e+00,1.065353216000000000e+09
1.891000032424926758e+00,-1.097000002861022949e+00,1.314000010490417480e+00,1.065353216000000000e+09
1.983999967575073242e+00,-1.105999946594238281e+00,1.274000048637390137e+00,1.065353216000000000e+09
2.073999881744384766e+00,-1.116000056266784668e+00,1.235000014305114746e+00,1.065353216000000000e+09
2.165999889373779297e+00,-1.123000025749206543e+00,1.192999958992004395e+00,1.065353216000000000e+09
1.911000013351440430e+00,-1.054000020027160645e+00,1.309999942779541016e+00,1.065353216000000000e+09
1.998999953269958496e+00,-1.055999994277954102e+00,1.266000032424926758e+00,1.065353216000000000e+09
2.094000101089477539e+00,-1.064000010490417480e+00,1.230000019073486328e+00,1.065353216000000000e+09
2.190000057220458984e+00,-1.067999958992004395e+00,1.189000010490417480e+00,1.065353216000000000e+09
1.921000003814697266e+00,-1.006000041961669922e+00,1.299999952316284180e+00,1.065353216000000000e+09
2.019000053405761719e+00,-1.009999990463256836e+00,1.263000011444091797e+00,1.065353216000000000e+09
2.111999988555908203e+00,-1.011999964714050293e+00,1.223999977111816406e+00,1.065353216000000000e+09
2.204999923706054688e+00,-1.009999990463256836e+00,1.182000041007995605e+00,1.065353216000000000e+09
1.937000036239624023e+00,-9.620000123977661133e-01,1.296000003814697266e+00,1.065353216000000000e+09
2.033999919891357422e+00,-9.610000252723693848e-01,1.256999969482421875e+00,1.065353216000000000e+09
2.125999927520751953e+00,-9.580000042915344238e-01,1.218000054359436035e+00,1.065353216000000000e+09
2.223000049591064453e+00,-9.539999961853027344e-01,1.177000045776367188e+00,1.065353216000000000e+09
1.952999949455261230e+00,-9.190000295639038086e-01,1.292000055313110352e+00,1.065353216000000000e+09
2.042000055313110352e+00,-9.079999923706054688e-01,1.246999979019165039e+00,1.065353216000000000e+09
2.141999959945678711e+00,-9.060000181198120117e-01,1.213000059127807617e+00,1.065353216000000000e+09
2.234999895095825195e+00,-8.960000276565551758e-01,1.169999957084655762e+00,1.065353216000000000e+09
1.970000028610229492e+00,-8.750000000000000000e-01,1.287999987602233887e+00,1.065353216000000000e+09
2.062000036239624023e+00,-8.629999756813049316e-01,1.246000051498413086e+00,1.065353216000000000e+09
2.154999971389770508e+00,-8.519999980926513672e-01,1.207000017166137695e+00,1.065353216000000000e+09
2.244999885559082031e+00,-8.370000123977661133e-01,1.162999987602233887e+00,1.065353216000000000e+09
1.967000007629394531e+00,-8.240000009536743164e-01,1.273000001907348633e+00,1.065353216000000000e+09
2.075000047683715820e+00,-8.130000233650207520e-01,1.241000056266784668e+00,1.065353216000000000e+09
2.167000055313110352e+00,-7.979999780654907227e-01,1.200999975204467773e+00,1.065353216000000000e+09
2.257999897003173828e+00,-7.799999713897705078e-01,1.157999992370605469e+00,1.065353216000000000e+09
1.985999941825866699e+00,-7.820000052452087402e-01,1.271999955177307129e+00,1.065353216000000000e+09
2.088999986648559570e+00,-7.649999856948852539e-01,1.236999988555908203e+00,1.065353216000000000e+09
2.178999900817871094e+00,-7.450000047683715820e-01,1.195999979972839355e+00,1.065353216000000000e+09
2.275000095367431641e+00,-7.239999771118164062e-01,1.156000018119812012e+00,1.065353216000000000e+09
1.995000004768371582e+00,-7.360000014305114746e-01,1.266000032424926758e+00,1.065353216000000000e+09
2.104000091552734375e+00,-7.170000076293945312e-01,1.233999967575073242e+00,1.065353216000000000e+09
2.194000005722045898e+00,-6.940000057220458984e-01,1.194000005722045898e+00,1.065353216000000000e+09
2.282999992370605469e+00,-6.669999957084655762e-01,1.149999976158142090e+00,1.065353216000000000e+09
2.009000062942504883e+00,-6.930000185966491699e-01,1.263000011444091797e+00,1.065353216000000000e+09
2.115999937057495117e+00,-6.690000295639038086e-01,1.230000019073486328e+00,1.065353216000000000e+09
2.200000047683715820e+00,-6.399999856948852539e-01,1.187000036239624023e+00,1.065353216000000000e+09
2.295000076293945312e+00,-6.110000014305114746e-01,1.146999955177307129e+00,1.065353216000000000e+09
2.022000074386596680e+00,-6.489999890327453613e-01,1.259999990463256836e+00,1.065353216000000000e+09
2.118000030517578125e+00,-6.169999837875366211e-01,1.222000002861022949e+00,1.065353216000000000e+09
2.213000059127807617e+00,-5.879999995231628418e-01,1.184999942779541016e+00,1.065353216000000000e+09
2.301000118255615234e+00,-5.529999732971191406e-01,1.141999959945678711e+00,1.065353216000000000e+09
2.026000022888183594e+00,-6.019999980926513672e-01,1.253000020980834961e+00,1.065353216000000000e+09
2.134000062942504883e+00,-5.699999928474426270e-01,1.220999956130981445e+00,1.065353216000000000e+09
2.221999883651733398e+00,-5.350000262260437012e-01,1.180999994277954102e+00,1.065353216000000000e+09
2.312000036239624023e+00,-4.970000088214874268e-01,1.139999985694885254e+00,1.065353216000000000e+09
2.038000106811523438e+00,-5.580000281333923340e-01,1.250000000000000000e+00,1.065353216000000000e+09
2.141999959945678711e+00,-5.210000276565551758e-01,1.217000007629394531e+00,1.065353216000000000e+09
2.227999925613403320e+00,-4.810000061988830566e-01,1.177000045776367188e+00,1.065353216000000000e+09
2.322000026702880859e+00,-4.399999976158142090e-01,1.139000058174133301e+00,1.065353216000000000e+09
2.046000003814697266e+00,-5.130000114440917969e-01,1.246000051498413086e+00,1.065353216000000000e+09
2.151000022888183594e+00,-4.709999859333038330e-01,1.213999986648559570e+00,1.065353216000000000e+09
2.236999988555908203e+00,-4.289999902248382568e-01,1.174999952316284180e+00,1.065353216000000000e+09
2.334000110626220703e+00,-3.840000033378601074e-01,1.139000058174133301e+00,1.065353216000000000e+09
2.059000015258789062e+00,-4.690000116825103760e-01,1.245000004768371582e+00,1.065353216000000000e+09
2.157999992370605469e+00,-4.219999909400939941e-01,1.210999965667724609e+00,1.065353216000000000e+09
2.246000051498413086e+00,-3.759999871253967285e-01,1.172999978065490723e+00,1.065353216000000000e+09
2.332000017166137695e+00,-3.260000050067901611e-01,1.133000016212463379e+00,1.065353216000000000e+09
2.066999912261962891e+00,-4.239999949932098389e-01,1.241999983787536621e+00,1.065353216000000000e+09
2.160000085830688477e+00,-3.729999959468841553e-01,1.205000042915344238e+00,1.065353216000000000e+09
2.250999927520751953e+00,-3.230000138282775879e-01,1.169999957084655762e+00,1.065353216000000000e+09
2.338999986648559570e+00,-2.700000107288360596e-01,1.131999969482421875e+00,1.065353216000000000e+09
2.071000099182128906e+00,-3.790000081062316895e-01,1.236999988555908203e+00,1.065353216000000000e+09
2.170000076293945312e+00,-3.240000009536743164e-01,1.205000042915344238e+00,1.065353216000000000e+09
2.256999969482421875e+00,-2.709999978542327881e-01,1.169000029563903809e+00,1.065353216000000000e+09
2.338999986648559570e+00,-2.129999995231628418e-01,1.128000020980834961e+00,1.065353216000000000e+09
2.079999923706054688e+00,-3.339999914169311523e-01,1.235999941825866699e+00,1.065353216000000000e+09
2.174999952316284180e+00,-2.750000059604644775e-01,1.202000021934509277e+00,1.065353216000000000e+09
2.263999938964843750e+00,-2.179999947547912598e-01,1.167999982833862305e+00,1.065353216000000000e+09
2.342999935150146484e+00,-1.570000052452087402e-01,1.128000020980834961e+00,1.065353216000000000e+09
2.088999986648559570e+00,-2.890000045299530029e-01,1.235000014305114746e+00,1.065353216000000000e+09
2.184000015258789062e+00,-2.259999960660934448e-01,1.202000021934509277e+00,1.065353216000000000e+09
2.269000053405761719e+00,-1.650000065565109253e-01,1.167000055313110352e+00,1.065353216000000000e+09
2.352999925613403320e+00,-1.010000035166740417e-01,1.129999995231628418e+00,1.065353216000000000e+09
2.092999935150146484e+00,-2.430000007152557373e-01,1.230999946594238281e+00,1.065353216000000000e+09
2.184999942779541016e+00,-1.759999990463256836e-01,1.197999954223632812e+00,1.065353216000000000e+09
2.265000104904174805e+00,-1.110000014305114746e-01,1.161999940872192383e+00,1.065353216000000000e+09
2.354000091552734375e+00,-4.300000146031379700e-02,1.128999948501586914e+00,1.065353216000000000e+09
2.095999956130981445e+00,-1.969999969005584717e-01,1.228000044822692871e+00,1.065353216000000000e+09
2.191999912261962891e+00,-1.270000040531158447e-01,1.197999954223632812e+00,1.065353216000000000e+09
2.275000095367431641e+00,-5.900000035762786865e-02,1.166000008583068848e+00,1.065353216000000000e+09
2.352999925613403320e+00,1.200000010430812836e-02,1.128000020980834961e+00,1.065353216000000000e+09
2.101000070571899414e+00,-1.509999930858612061e-01,1.225999951362609863e+00,1.065353216000000000e+09
2.187000036239624023e+00,-7.699999958276748657e-02,1.192999958992004395e+00,1.065353216000000000e+09
2.278000116348266602e+00,-4.999999888241291046e-03,1.164999961853027344e+00,1.065353216000000000e+09
2.349999904632568359e+00,6.800000369548797607e-02,1.126999974250793457e+00,1.065353216000000000e+09
2.105999946594238281e+00,-1.059999987483024597e-01,1.225000023841857910e+00,1.065353216000000000e+09
2.187999963760375977e+00,-2.800000086426734924e-02,1.190999984741210938e+00,1.065353216000000000e+09
2.275000095367431641e+00,4.600000008940696716e-02,1.162999987602233887e+00,1.065353216000000000e+09
2.348000049591064453e+00,1.250000000000000000e-01,1.126999974250793457e+00,1.065353216000000000e+09
2.108000040054321289e+00,-5.999999865889549255e-02,1.223000049591064453e+00,1.065353216000000000e+09
2.201999902725219727e+00,2.099999971687793732e-02,1.197000026702880859e+00,1.065353216000000000e+09
2.279999971389770508e+00,9.899999946355819702e-02,1.166000008583068848e+00,1.065353216000000000e+09
2.354000091552734375e+00,1.819999963045120239e-01,1.131999969482421875e+00,1.065353216000000000e+09
2.117000102996826172e+00,-1.400000043213367462e-02,1.225000023841857910e+00,1.065353216000000000e+09
2.204999923706054688e+00,7.100000232458114624e-02,1.197999954223632812e+00,1.065353216000000000e+09
2.276999950408935547e+00,1.529999971389770508e-01,1.164999961853027344e+00,1.065353216000000000e+09
2.355999946594238281e+00,2.389999926090240479e-01,1.134999990463256836e+00,1.065353216000000000e+09
2.118999958038330078e+00,3.099999949336051941e-02,1.223000049591064453e+00,1.065353216000000000e+09
2.203999996185302734e+00,1.199999973177909851e-01,1.195999979972839355e+00,1.065353216000000000e+09
2.276999950408935547e+00,2.060000002384185791e-01,1.166000008583068848e+00,1.065353216000000000e+09
2.348999977111816406e+00,2.949999868869781494e-01,1.133999943733215332e+00,1.065353216000000000e+09
2.124000072479248047e+00,7.800000160932540894e-02,1.223999977111816406e+00,1.065353216000000000e+09
2.211999893188476562e+00,1.710000038146972656e-01,1.200000047683715820e+00,1.065353216000000000e+09
2.275000095367431641e+00,2.599999904632568359e-01,1.167000055313110352e+00,1.065353216000000000e+09
2.339999914169311523e+00,3.510000109672546387e-01,1.133000016212463379e+00,1.065353216000000000e+09
2.121000051498413086e+00,1.250000000000000000e-01,1.220999956130981445e+00,1.065353216000000000e+09
2.210000038146972656e+00,2.220000028610229492e-01,1.200000047683715820e+00,1.065353216000000000e+09
2.270999908447265625e+00,3.129999935626983643e-01,1.167000055313110352e+00,1.065353216000000000e+09
2.341000080108642578e+00,4.090000092983245850e-01,1.138000011444091797e+00,1.065353216000000000e+09
2.127000093460083008e+00,1.720000058412551880e-01,1.223999977111816406e+00,1.065353216000000000e+09
2.203000068664550781e+00,2.709999978542327881e-01,1.197999954223632812e+00,1.065353216000000000e+09
2.269999980926513672e+00,3.659999966621398926e-01,1.169999957084655762e+00,1.065353216000000000e+09
2.335000038146972656e+00,4.650000035762786865e-01,1.141000032424926758e+00,1.065353216000000000e+09
2.122999906539916992e+00,2.179999947547912598e-01,1.220999956130981445e+00,1.065353216000000000e+09
2.203000068664550781e+00,3.219999969005584717e-01,1.200000047683715820e+00,1.065353216000000000e+09
2.267999887466430664e+00,4.199999868869781494e-01,1.172999978065490723e+00,1.065353216000000000e+09
2.329999923706054688e+00,5.220000147819519043e-01,1.144000053405761719e+00,1.065353216000000000e+09
2.125999927520751953e+00,2.660000026226043701e-01,1.223000049591064453e+00,1.065353216000000000e+09
2.200999975204467773e+00,3.729999959468841553e-01,1.200999975204467773e+00,1.065353216000000000e+09
2.256000041961669922e+00,4.729999899864196777e-01,1.171000003814697266e+00,1.065353216000000000e+09
2.322999954223632812e+00,5.789999961853027344e-01,1.148000001907348633e+00,1.065353216000000000e+09
2.127000093460083008e+00,3.140000104904174805e-01,1.223999977111816406e+00,1.065353216000000000e+09
2.196000099182128906e+00,4.230000078678131104e-01,1.200999975204467773e+00,1.065353216000000000e+09
2.257999897003173828e+00,5.279999971389770508e-01,1.177000045776367188e+00,1.065353216000000000e+09
2.312000036239624023e+00,6.349999904632568359e-01,1.149999976158142090e+00,1.065353216000000000e+09
2.119999885559082031e+00,3.600000143051147461e-01,1.222000002861022949e+00,1.065353216000000000e+09
2.194999933242797852e+00,4.749999940395355225e-01,1.203999996185302734e+00,1.065353216000000000e+09
2.252000093460083008e+00,5.820000171661376953e-01,1.179999947547912598e+00,1.065353216000000000e+09
2.305000066757202148e+00,6.930000185966491699e-01,1.154000043869018555e+00,1.065353216000000000e+09
2.118999958038330078e+00,4.090000092983245850e-01,1.223000049591064453e+00,1.065353216000000000e+09
2.187000036239624023e+00,5.260000228881835938e-01,1.203999996185302734e+00,1.065353216000000000e+09
2.240000009536743164e+00,6.349999904632568359e-01,1.179999947547912598e+00,1.065353216000000000e+09
2.295000076293945312e+00,7.490000128746032715e-01,1.159000039100646973e+00,1.065353216000000000e+09
2.112999916076660156e+00,4.569999873638153076e-01,1.222000002861022949e+00,1.065353216000000000e+09
2.181999921798706055e+00,5.770000219345092773e-01,1.207000017166137695e+00,1.065353216000000000e+09
2.236000061035156250e+00,6.909999847412109375e-01,1.185999989509582520e+00,1.065353216000000000e+09
2.292000055313110352e+00,8.080000281333923340e-01,1.167000055313110352e+00,1.065353216000000000e+09
2.127000093460083008e+00,5.090000033378601074e-01,1.233999967575073242e+00,1.065353216000000000e+09
2.177000045776367188e+00,6.280000209808349609e-01,1.210000038146972656e+00,1.065353216000000000e+09
2.229000091552734375e+00,7.450000047683715820e-01,1.190000057220458984e+00,1.065353216000000000e+09
2.276000022888183594e+00,8.640000224113464355e-01,1.169999957084655762e+00,1.065353216000000000e+09
2.125000000000000000e+00,5.580000281333923340e-01,1.235999941825866699e+00,1.065353216000000000e+09
2.170000076293945312e+00,6.800000071525573730e-01,1.213000059127807617e+00,1.065353216000000000e+09
2.216000080108642578e+00,7.979999780654907227e-01,1.192999958992004395e+00,1.065353216000000000e+09
2.263999938964843750e+00,9.210000038146972656e-01,1.174999952316284180e+00,1.065353216000000000e+09
2.118999958038330078e+00,6.069999933242797852e-01,1.236999988555908203e+00,1.065353216000000000e+09
2.163000106811523438e+00,7.319999933242797852e-01,1.215999960899353027e+00,1.065353216000000000e+09
2.210000038146972656e+00,8.539999723434448242e-01,1.199000000953674316e+00,1.065353216000000000e+09
2.249000072479248047e+00,9.779999852180480957e-01,1.179000020027160645e+00,1.065353216000000000e+09
2.115000009536743164e+00,6.570000052452087402e-01,1.238999962806701660e+00,1.065353216000000000e+09
2.154999971389770508e+00,7.839999794960021973e-01,1.218999981880187988e+00,1.065353216000000000e+09
2.196000099182128906e+00,9.079999923706054688e-01,1.202000021934509277e+00,1.065353216000000000e+09
2.233999967575073242e+00,1.034000039100646973e+00,1.184999942779541016e+00,1.065353216000000000e+09
2.111000061035156250e+00,7.070000171661376953e-01,1.241999983787536621e+00,1.065353216000000000e+09
2.144999980926513672e+00,8.360000252723693848e-01,1.222000002861022949e+00,1.065353216000000000e+09
2.181999921798706055e+00,9.620000123977661133e-01,1.205000042915344238e+00,1.065353216000000000e+09
2.224999904632568359e+00,1.093999981880187988e+00,1.194000005722045898e+00,1.065353216000000000e+09
2.105999946594238281e+00,7.580000162124633789e-01,1.246000051498413086e+00,1.065353216000000000e+09
2.134000062942504883e+00,8.889999985694885254e-01,1.225000023841857910e+00,1.065353216000000000e+09
2.174000024795532227e+00,1.019000053405761719e+00,1.213000059127807617e+00,1.065353216000000000e+09
2.206000089645385742e+00,1.151000022888183594e+00,1.199000000953674316e+00,1.065353216000000000e+09
2.094000101089477539e+00,8.069999814033508301e-01,1.245000004768371582e+00,1.065353216000000000e+09
2.131000041961669922e+00,9.440000057220458984e-01,1.233000040054321289e+00,1.065353216000000000e+09
2.160000085830688477e+00,1.074000000953674316e+00,1.218000054359436035e+00,1.065353216000000000e+09
2.191999912261962891e+00,1.208999991416931152e+00,1.207000017166137695e+00,1.065353216000000000e+09
2.089999914169311523e+00,8.600000143051147461e-01,1.251000046730041504e+00,1.065353216000000000e+09
2.115999937057495117e+00,9.959999918937683105e-01,1.235999941825866699e+00,1.065353216000000000e+09
2.142999887466430664e+00,1.128000020980834961e+00,1.223000049591064453e+00,1.065353216000000000e+09
2.174000024795532227e+00,1.266999959945678711e+00,1.215000033378601074e+00,1.065353216000000000e+09
2.078999996185302734e+00,9.100000262260437012e-01,1.253000020980834961e+00,1.065353216000000000e+09
2.105000019073486328e+00,1.049999952316284180e+00,1.240000009536743164e+00,1.065353216000000000e+09
2.125999927520751953e+00,1.182000041007995605e+00,1.226999998092651367e+00,1.065353216000000000e+09
2.157999992370605469e+00,1.325999975204467773e+00,1.223000049591064453e+00,1.065353216000000000e+09
2.071000099182128906e+00,9.620000123977661133e-01,1.256999969482421875e+00,1.065353216000000000e+09
2.095000028610229492e+00,1.105000019073486328e+00,1.246999979019165039e+00,1.065353216000000000e+09
2.109999895095825195e+00,1.238000035285949707e+00,1.233999967575073242e+00,1.065353216000000000e+09
2.128000020980834961e+00,1.376999974250793457e+00,1.225999951362609863e+00,1.065353216000000000e+09
2.065999984741210938e+00,1.016000032424926758e+00,1.263000011444091797e+00,1.065353216000000000e+09
2.078999996185302734e+00,1.156999945640563965e+00,1.251000046730041504e+00,1.065353216000000000e+09
2.095999956130981445e+00,1.294999957084655762e+00,1.241999983787536621e+00,1.065353216000000000e+09
2.121000051498413086e+00,1.444000005722045898e+00,1.241000056266784668e+00,1.065353216000000000e+09
2.052000045776367188e+00,1.067999958992004395e+00,1.266000032424926758e+00,1.065353216000000000e+09
2.066999912261962891e+00,1.213000059127807617e+00,1.256999969482421875e+00,1.065353216000000000e+09
2.082999944686889648e+00,1.355000019073486328e+00,1.251999974250793457e+00,1.065353216000000000e+09
2.095000028610229492e+00,1.498999953269958496e+00,1.248000025749206543e+00,1.065353216000000000e+09
2.035000085830688477e+00,1.116999983787536621e+00,1.266999959945678711e+00,1.065353216000000000e+09
2.049999952316284180e+00,1.266999959945678711e+00,1.261999964714050293e+00,1.065353216000000000e+09
2.063999891281127930e+00,1.411999940872192383e+00,1.259999990463256836e+00,1.065353216000000000e+09
2.069999933242797852e+00,1.554999947547912598e+00,1.254999995231628418e+00,1.065353216000000000e+09
2.023999929428100586e+00,1.171000003814697266e+00,1.271999955177307129e+00,1.065353216000000000e+09
2.036000013351440430e+00,1.322999954223632812e+00,1.269999980926513672e+00,1.065353216000000000e+09
2.039999961853027344e+00,1.465000033378601074e+00,1.264999985694885254e+00,1.065353216000000000e+09
2.052000045776367188e+00,1.618000030517578125e+00,1.268000006675720215e+00,1.065353216000000000e+09
2.013999938964843750e+00,1.225999951362609863e+00,1.279000043869018555e+00,1.065353216000000000e+09
2.020999908447265625e+00,1.378999948501586914e+00,1.277999997138977051e+00,1.065353216000000000e+09
2.022000074386596680e+00,1.524000048637390137e+00,1.274999976158142090e+00,1.065353216000000000e+09
2.028000116348266602e+00,1.677000045776367188e+00,1.279000043869018555e+00,1.065353216000000000e+09
1.993999958038330078e+00,1.276999950408935547e+00,1.281000018119812012e+00,1.065353216000000000e+09
2.000000000000000000e+00,1.432999968528747559e+00,1.282999992370605469e+00,1.065353216000000000e+09
2.007999897003173828e+00,1.587000012397766113e+00,1.287999987602233887e+00,1.065353216000000000e+09
2.003000020980834961e+00,1.735999941825866699e+00,1.289000034332275391e+00,1.065353216000000000e+09
1.986999988555908203e+00,1.337000012397766113e+00,1.292000055313110352e+00,1.065353216000000000e+09
1.985999941825866699e+00,1.493000030517578125e+00,1.294000029563903809e+00,1.065353216000000000e+09
1.983999967575073242e+00,1.643000006675720215e+00,1.296000003814697266e+00,1.065353216000000000e+09
1.976999998092651367e+00,1.794999957084655762e+00,1.299999952316284180e+00,1.065353216000000000e+09
1.970999956130981445e+00,1.391000032424926758e+00,1.297000050544738770e+00,1.065353216000000000e+09
1.965999960899353027e+00,1.549000024795532227e+00,1.299999952316284180e+00,1.065353216000000000e+09
1.962000012397766113e+00,1.702000021934509277e+00,1.307000041007995605e+00,1.065353216000000000e+09
1.952000021934509277e+00,1.856999993324279785e+00,1.312999963760375977e+00,1.065353216000000000e+09
1.955999970436096191e+00,1.447999954223632812e+00,1.304000020027160645e+00,1.065353216000000000e+09
1.942000031471252441e+00,1.603000044822692871e+00,1.307000041007995605e+00,1.065353216000000000e+09
1.934999942779541016e+00,1.758000016212463379e+00,1.315000057220458984e+00,1.065353216000000000e+09
1.917000055313110352e+00,1.909999966621398926e+00,1.320999979972839355e+00,1.065353216000000000e+09
1.939000010490417480e+00,1.504999995231628418e+00,1.312000036239624023e+00,1.065353216000000000e+09
1.925999999046325684e+00,1.664999961853027344e+00,1.319000005722045898e+00,1.065353216000000000e+09
1.909000039100646973e+00,1.815999984741210938e+00,1.325000047683715820e+00,1.065353216000000000e+09
1.891999959945678711e+00,1.973999977111816406e+00,1.335999965667724609e+00,1.065353216000000000e+09
1.922000050544738770e+00,1.562999963760375977e+00,1.320000052452087402e+00,1.065353216000000000e+09
1.902999997138977051e+00,1.722000002861022949e+00,1.327000021934509277e+00,1.065353216000000000e+09
1.884999990463256836e+00,1.876999974250793457e+00,1.337000012397766113e+00,1.065353216000000000e+09
1.858999967575073242e+00,2.030999898910522461e+00,1.347000002861022949e+00,1.065353216000000000e+09
1.898000001907348633e+00,1.616999983787536621e+00,1.324000000953674316e+00,1.065353216000000000e+09
1.881000041961669922e+00,1.781999945640563965e+00,1.338000059127807617e+00,1.065353216000000000e+09
1.855999946594238281e+00,1.934000015258789062e+00,1.347000002861022949e+00,1.065353216000000000e+09
1.830000042915344238e+00,2.094000101089477539e+00,1.363000035285949707e+00,1.065353216000000000e+09
1.883000016212463379e+00,1.679000020027160645e+00,1.335000038146972656e+00,1.065353216000000000e+09
1.855999946594238281e+00,1.840999960899353027e+00,1.347000002861022949e+00,1.065353216000000000e+09
1.827999949455261230e+00,1.995000004768371582e+00,1.360000014305114746e+00,1.065353216000000000e+09
1.800999999046325684e+00,2.158999919891357422e+00,1.379999995231628418e+00,1.065353216000000000e+09
1.863999962806701660e+00,1.740000009536743164e+00,1.345000028610229492e+00,1.065353216000000000e+09
1.825999975204467773e+00,1.894999980926513672e+00,1.353999972343444824e+00,1.065353216000000000e+09
1.797999978065490723e+00,2.055000066757202148e+00,1.371999979019165039e+00,1.065353216000000000e+09
1.766999959945678711e+00,2.220000028610229492e+00,1.394000053405761719e+00,1.065353216000000000e+09
1.838000059127807617e+00,1.796000003814697266e+00,1.351999998092651367e+00,1.065353216000000000e+09
1.804999947547912598e+00,1.960000038146972656e+00,1.368999958038330078e+00,1.065353216000000000e+09
1.773000001907348633e+00,2.121999979019165039e+00,1.389000058174133301e+00,1.065353216000000000e+09
1.730000019073486328e+00,2.279000043869018555e+00,1.407999992370605469e+00,1.065353216000000000e+09
1.819000005722045898e+00,1.860000014305114746e+00,1.363999962806701660e+00,1.065353216000000000e+09
1.776000022888183594e+00,2.019999980926513672e+00,1.379999995231628418e+00,1.065353216000000000e+09
1.736999988555908203e+00,2.178999900817871094e+00,1.399000048637390137e+00,1.065353216000000000e+09
1.697999954223632812e+00,2.346999883651733398e+00,1.427000045776367188e+00,1.065353216000000000e+09
1.792999982833862305e+00,1.919999957084655762e+00,1.373000025749206543e+00,1.065353216000000000e+09
1.746999979019165039e+00,2.082000017166137695e+00,1.391000032424926758e+00,1.065353216000000000e+09
1.705999970436096191e+00,2.243000030517578125e+00,1.414999961853027344e+00,1.065353216000000000e+09
1.659999966621398926e+00,2.407999992370605469e+00,1.442000031471252441e+00,1.065353216000000000e+09
1.764999985694885254e+00,1.978999972343444824e+00,1.381000041961669922e+00,1.065353216000000000e+09
1.718999981880187988e+00,2.144999980926513672e+00,1.404999971389770508e+00,1.065353216000000000e+09
1.674000024795532227e+00,2.308000087738037109e+00,1.430999994277954102e+00,1.065353216000000000e+09
1.616000056266784668e+00,2.463000059127807617e+00,1.455000042915344238e+00,1.065353216000000000e+09
1.741999983787536621e+00,2.046000003814697266e+00,1.394999980926513672e+00,1.065353216000000000e+09
1.690000057220458984e+00,2.210999965667724609e+00,1.419999957084655762e+00,1.065353216000000000e+09
1.633000016212463379e+00,2.364000082015991211e+00,1.442000031471252441e+00,1.065353216000000000e+09
1.577999949455261230e+00,2.528000116348266602e+00,1.473000049591064453e+00,1.065353216000000000e+09
1.713999986648559570e+00,2.108999967575073242e+00,1.406000018119812012e+00,1.065353216000000000e+09
1.656999945640563965e+00,2.273000001907348633e+00,1.432000041007995605e+00,1.065353216000000000e+09
1.601999998092651367e+00,2.434999942779541016e+00,1.463000059127807617e+00,1.065353216000000000e+09
1.536000013351440430e+00,2.588999986648559570e+00,1.491000056266784668e+00,1.065353216000000000e+09
1.687000036239624023e+00,2.176000118255615234e+00,1.419999957084655762e+00,1.065353216000000000e+09
1.625000000000000000e+00,2.339999914169311523e+00,1.449000000953674316e+00,1.065353216000000000e+09
1.560999989509582520e+00,2.493000030517578125e+00,1.475999951362609863e+00,1.065353216000000000e+09
1.493000030517578125e+00,2.651999950408935547e+00,1.508999943733215332e+00,1.065353216000000000e+09
1.659999966621398926e+00,2.244999885559082031e+00,1.434999942779541016e+00,1.065353216000000000e+09
1.592000007629394531e+00,2.407999992370605469e+00,1.465000033378601074e+00,1.065353216000000000e+09
1.519000053405761719e+00,2.555000066757202148e+00,1.491000056266784668e+00,1.065353216000000000e+09
1.447000026702880859e+00,2.713000059127807617e+00,1.526999950408935547e+00,1.065353216000000000e+09
1.625000000000000000e+00,2.306999921798706055e+00,1.445999979972839355e+00,1.065353216000000000e+09
1.554999947547912598e+00,2.473000049591064453e+00,1.480999946594238281e+00,1.065353216000000000e+09
1.480000019073486328e+00,2.622999906539916992e+00,1.509999990463256836e+00,1.065353216000000000e+09
1.401999950408935547e+00,2.776000022888183594e+00,1.547000050544738770e+00,1.065353216000000000e+09
1.593000054359436035e+00,2.375999927520751953e+00,1.460999965667724609e+00,1.065353216000000000e+09
1.516999959945678711e+00,2.539000034332275391e+00,1.496000051498413086e+00,1.065353216000000000e+09
1.440000057220458984e+00,2.691999912261962891e+00,1.531000018119812012e+00,1.065353216000000000e+09
1.348999977111816406e+00,2.828999996185302734e+00,1.560999989509582520e+00,1.065353216000000000e+09
1.559999942779541016e+00,2.447999954223632812e+00,1.476999998092651367e+00,1.065353216000000000e+09
1.478000044822692871e+00,2.607000112533569336e+00,1.514000058174133301e+00,1.065353216000000000e+09
1.391999959945678711e+00,2.752000093460083008e+00,1.547000050544738770e+00,1.065353216000000000e+09
1.299000024795532227e+00,2.891000032424926758e+00,1.580999970436096191e+00,1.065353216000000000e+09
1.524000048637390137e+00,2.516999959945678711e+00,1.491999983787536621e+00,1.065353216000000000e+09
1.434999942779541016e+00,2.671000003814697266e+00,1.529000043869018555e+00,1.065353216000000000e+09
1.345999956130981445e+00,2.819000005722045898e+00,1.565999984741210938e+00,1.065353216000000000e+09
0.000000000000000000e+00,0.000000000000000000e+00,0.000000000000000000e+00,1.065353216000000000e+09
1.486999988555908203e+00,2.589999914169311523e+00,1.509999990463256836e+00,1.065353216000000000e+09
1.391999959945678711e+00,2.739000082015991211e+00,1.547000050544738770e+00,1.065353216000000000e+09
1.294000029563903809e+00,2.874000072479248047e+00,1.580000042915344238e+00,1.065353216000000000e+09
0.000000000000000000e+00,0.000000000000000000e+00,0.000000000000000000e+00,1.065353216000000000e+09
1.449000000953674316e+00,2.664000034332275391e+00,1.527999997138977051e+00,1.065353216000000000e+09
1.347000002861022949e+00,2.809999942779541016e+00,1.565999984741210938e+00,1.065353216000000000e+09
0.000000000000000000e+00,0.000000000000000000e+00,0.000000000000000000e+00,1.065353216000000000e+09
0.000000000000000000e+00,0.000000000000000000e+00,0.000000000000000000e+00,1.065353216000000000e+09
1.402999997138977051e+00,2.727999925613403320e+00,1.541000008583068848e+00,1.065353216000000000e+09
1.297999978065490723e+00,2.871999979019165039e+00,1.580999970436096191e+00,1.065353216000000000e+09
0.000000000000000000e+00,0.000000000000000000e+00,0.000000000000000000e+00,1.065353216000000000e+09
0.000000000000000000e+00,0.000000000000000000e+00,0.000000000000000000e+00,1.065353216000000000e+09
1.358999967575073242e+00,2.802000045776367188e+00,1.557999968528747559e+00,1.065353216000000000e+09
1.231999993324279785e+00,2.901999950408935547e+00,1.578999996185302734e+00,1.065353216000000000e+09
0.000000000000000000e+00,0.000000000000000000e+00,0.000000000000000000e+00,1.065353216000000000e+09
4.300000146031379700e-02,1.340000033378601074e-01,7.000000029802322388e-02,1.065353216000000000e+09
1.312000036239624023e+00,2.872999906539916992e+00,1.575000047683715820e+00,1.065353216000000000e+09
0.000000000000000000e+00,0.000000000000000000e+00,0.000000000000000000e+00,1.065353216000000000e+09
