x,y,z,intensity
-7.171999931335449219e+00,-4.196000099182128906e+00,3.992000102996826172e+00,1.065353216000000000e+09
-6.381999969482421875e+00,-3.417000055313110352e+00,3.621999979019165039e+00,1.065353216000000000e+09
-1.037199974060058594e+01,-7.377999782562255859e+00,5.652999877929687500e+00,1.065353216000000000e+09
-8.944999694824218750e+00,-5.933000087738037109e+00,4.955999851226806641e+00,1.065353216000000000e+09
-7.739999771118164062e+00,-4.760000228881835938e+00,4.361000061035156250e+00,1.065353216000000000e+09
-6.834000110626220703e+00,-3.851999998092651367e+00,3.914000034332275391e+00,1.065353216000000000e+09
-1.188500022888183594e+01,-8.868000030517578125e+00,6.594999790191650391e+00,1.065353216000000000e+09
-9.873000144958496094e+00,-6.874000072479248047e+00,5.552999973297119141e+00,1.065353216000000000e+09
-8.461000442504882812e+00,-5.465000152587890625e+00,4.827000141143798828e+00,1.065353216000000000e+09
-7.322999954223632812e+00,-4.342000007629394531e+00,4.236000061035156250e+00,1.065353216000000000e+09
0.000000000000000000e+00,0.000000000000000000e+00,0.000000000000000000e+00,1.065353216000000000e+09
-1.123099994659423828e+01,-8.199000358581542969e+00,6.419000148773193359e+00,1.065353216000000000e+09
-9.277999877929687500e+00,-6.287000179290771484e+00,5.362999916076660156e+00,1.065353216000000000e+09
-7.962999820709228516e+00,-4.959000110626220703e+00,4.653999805450439453e+00,1.065353216000000000e+09
0.000000000000000000e+00,0.000000000000000000e+00,0.000000000000000000e+00,1.065353216000000000e+09
0.000000000000000000e+00,0.000000000000000000e+00,0.000000000000000000e+00,1.065353216000000000e+09
-1.018000030517578125e+01,-7.232999801635742188e+00,5.967000007629394531e+00,1.065353216000000000e+09
-8.781999588012695312e+00,-5.737999916076660156e+00,5.190000057220458984e+00,1.065353216000000000e+09
0.000000000000000000e+00,0.000000000000000000e+00,0.000000000000000000e+00,1.065353216000000000e+09
0.000000000000000000e+00,0.000000000000000000e+00,0.000000000000000000e+00,1.065353216000000000e+09
-1.143799972534179688e+01,-8.513999938964843750e+00,6.802999973297119141e+00,1.065353216000000000e+09
-9.843999862670898438e+00,-6.744999885559082031e+00,5.886000156402587891e+00,1.065353216000000000e+09
0.000000000000000000e+00,0.000000000000000000e+00,0.000000000000000000e+00,1.065353216000000000e+09
0.000000000000000000e+00,0.000000000000000000e+00,0.000000000000000000e+00,1.065353216000000000e+09
-1.326399993896484375e+01,-1.034000015258789062e+01,8.010000228881835938e+00,1.065353216000000000e+09
-1.079500007629394531e+01,-7.748000144958496094e+00,6.533999919891357422e+00,1.065353216000000000e+09
0.000000000000000000e+00,0.000000000000000000e+00,0.000000000000000000e+00,1.065353216000000000e+09
0.000000000000000000e+00,0.000000000000000000e+00,0.000000000000000000e+00,1.065353216000000000e+09
0.000000000000000000e+00,0.000000000000000000e+00,0.000000000000000000e+00,1.065353216000000000e+09
0.000000000000000000e+00,0.000000000000000000e+00,0.000000000000000000e+00,1.065353216000000000e+09
0.000000000000000000e+00,0.000000000000000000e+00,0.000000000000000000e+00,1.065353216000000000e+09
-3.382899856567382812e+01,-3.105699920654296875e+01,2.119400024414062500e+01,1.065353216000000000e+09
0.000000000000000000e+00,0.000000000000000000e+00,0.000000000000000000e+00,1.065353216000000000e+09
0.000000000000000000e+00,0.000000000000000000e+00,0.000000000000000000e+00,1.065353216000000000e+09
0.000000000000000000e+00,0.000000000000000000e+00,0.000000000000000000e+00,1.065353216000000000e+09
0.000000000000000000e+00,0.000000000000000000e+00,0.000000000000000000e+00,1.065353216000000000e+09
-2.209600067138671875e+01,-1.971500015258789062e+01,1.404199981689453125e+01,1.065353216000000000e+09
0.000000000000000000e+00,0.000000000000000000e+00,0.000000000000000000e+00,1.065353216000000000e+09
0.000000000000000000e+00,0.000000000000000000e+00,0.000000000000000000e+00,1.065353216000000000e+09
0.000000000000000000e+00,0.000000000000000000e+00,0.000000000000000000e+00,1.065353216000000000e+09
-2.190999984741210938e+01,-2.044499969482421875e+01,1.418500041961669922e+01,1.065353216000000000e+09
-2.233099937438964844e+01,-1.920999908447265625e+01,1.431099987030029297e+01,1.065353216000000000e+09
0.000000000000000000e+00,0.000000000000000000e+00,0.000000000000000000e+00,1.065353216000000000e+09
0.000000000000000000e+00,0.000000000000000000e+00,0.000000000000000000e+00,1.065353216000000000e+09
0.000000000000000000e+00,0.000000000000000000e+00,0.000000000000000000e+00,1.065353216000000000e+09
-2.211000061035156250e+01,-1.989100074768066406e+01,1.439999961853027344e+01,1.065353216000000000e+09
0.000000000000000000e+00,0.000000000000000000e+00,0.000000000000000000e+00,1.065353216000000000e+09
0.000000000000000000e+00,0.000000000000000000e+00,0.000000000000000000e+00,1.065353216000000000e+09
0.000000000000000000e+00,0.000000000000000000e+00,0.000000000000000000e+00,1.065353216000000000e+09
-2.148900032043457031e+01,-2.020700073242187500e+01,1.423999977111816406e+01,1.065353216000000000e+09
0.000000000000000000e+00,0.000000000000000000e+00,0.000000000000000000e+00,1.065353216000000000e+09
0.000000000000000000e+00,0.000000000000000000e+00,0.000000000000000000e+00,1.065353216000000000e+09
0.000000000000000000e+00,0.000000000000000000e+00,0.000000000000000000e+00,1.065353216000000000e+09
-2.114900016784667969e+01,-2.078599929809570312e+01,1.426900005340576172e+01,1.065353216000000000e+09
0.000000000000000000e+00,0.000000000000000000e+00,0.000000000000000000e+00,1.065353216000000000e+09
0.000000000000000000e+00,0.000000000000000000e+00,0.000000000000000000e+00,1.065353216000000000e+09
0.000000000000000000e+00,0.000000000000000000e+00,0.000000000000000000e+00,1.065353216000000000e+09
-2.078400039672851562e+01,-2.135899925231933594e+01,1.429100036621093750e+01,1.065353216000000000e+09
0.000000000000000000e+00,0.000000000000000000e+00,0.000000000000000000e+00,1.065353216000000000e+09
0.000000000000000000e+00,0.000000000000000000e+00,0.000000000000000000e+00,1.065353216000000000e+09
-1.942200088500976562e+01,-2.264399909973144531e+01,1.400800037384033203e+01,1.065353216000000000e+09
-2.029100036621093750e+01,-2.179700088500976562e+01,1.423600006103515625e+01,1.065353216000000000e+09
0.000000000000000000e+00,0.000000000000000000e+00,0.000000000000000000e+00,1.065353216000000000e+09
0.000000000000000000e+00,0.000000000000000000e+00,0.000000000000000000e+00,1.065353216000000000e+09
0.000000000000000000e+00,0.000000000000000000e+00,0.000000000000000000e+00,1.065353216000000000e+09
-1.981599998474121094e+01,-2.225799942016601562e+01,1.419900035858154297e+01,1.065353216000000000e+09
0.000000000000000000e+00,0.000000000000000000e+00,0.000000000000000000e+00,1.065353216000000000e+09
0.000000000000000000e+00,0.000000000000000000e+00,0.000000000000000000e+00,1.065353216000000000e+09
0.000000000000000000e+00,0.000000000000000000e+00,0.000000000000000000e+00,1.065353216000000000e+09
-1.936499977111816406e+01,-2.275699996948242188e+01,1.418700027465820312e+01,1.065353216000000000e+09
0.000000000000000000e+00,0.000000000000000000e+00,0.000000000000000000e+00,1.065353216000000000e+09
0.000000000000000000e+00,0.000000000000000000e+00,0.000000000000000000e+00,1.065353216000000000e+09
0.000000000000000000e+00,0.000000000000000000e+00,0.000000000000000000e+00,1.065353216000000000e+09
-1.899600028991699219e+01,-2.335700035095214844e+01,1.424600028991699219e+01,1.065353216000000000e+09
0.000000000000000000e+00,0.000000000000000000e+00,0.000000000000000000e+00,1.065353216000000000e+09
0.000000000000000000e+00,0.000000000000000000e+00,0.000000000000000000e+00,1.065353216000000000e+09
0.000000000000000000e+00,0.000000000000000000e+00,0.000000000000000000e+00,1.065353216000000000e+09
0.000000000000000000e+00,0.000000000000000000e+00,0.000000000000000000e+00,1.065353216000000000e+09
0.000000000000000000e+00,0.000000000000000000e+00,0.000000000000000000e+00,1.065353216000000000e+09
0.000000000000000000e+00,0.000000000000000000e+00,0.000000000000000000e+00,1.065353216000000000e+09
0.000000000000000000e+00,0.000000000000000000e+00,0.000000000000000000e+00,1.065353216000000000e+09
-1.806399917602539062e+01,-2.436400032043457031e+01,1.425300025939941406e+01,1.065353216000000000e+09
0.000000000000000000e+00,0.000000000000000000e+00,0.000000000000000000e+00,1.065353216000000000e+09
-1.584399986267089844e+01,-2.654999923706054688e+01,1.425000000000000000e+01,1.065353216000000000e+09
0.000000000000000000e+00,0.000000000000000000e+00,0.000000000000000000e+00,1.065353216000000000e+09
-1.753599929809570312e+01,-2.479400062561035156e+01,1.422200012207031250e+01,1.065353216000000000e+09
-1.446899986267089844e+01,-2.776700019836425781e+01,1.434799957275390625e+01,1.065353216000000000e+09
-1.526900005340576172e+01,-2.692700004577636719e+01,1.426399993896484375e+01,1.065353216000000000e+09
-1.609399986267089844e+01,-2.609000015258789062e+01,1.421500015258789062e+01,1.065353216000000000e+09
-1.704899978637695312e+01,-2.529800033569335938e+01,1.423700046539306641e+01,1.065353216000000000e+09
-1.394900035858154297e+01,-2.827700042724609375e+01,1.447000026702880859e+01,1.065353216000000000e+09
-1.477499961853027344e+01,-2.746899986267089844e+01,1.436699962615966797e+01,1.065353216000000000e+09
-1.557900047302246094e+01,-2.656200027465820312e+01,1.425300025939941406e+01,1.065353216000000000e+09
-1.654199981689453125e+01,-2.577400016784667969e+01,1.424199962615966797e+01,1.065353216000000000e+09
-1.330200004577636719e+01,-2.853599929809570312e+01,1.447299957275390625e+01,1.065353216000000000e+09
-1.426900005340576172e+01,-2.799900054931640625e+01,1.447299957275390625e+01,1.065353216000000000e+09
-1.508100032806396484e+01,-2.709099960327148438e+01,1.432199954986572266e+01,1.065353216000000000e+09
-1.600200080871582031e+01,-2.621100044250488281e+01,1.423099994659423828e+01,1.065353216000000000e+09
-1.203699970245361328e+01,-2.739500045776367188e+01,1.377200031280517578e+01,1.065353216000000000e+09
-1.362500000000000000e+01,-2.826899909973144531e+01,1.445199966430664062e+01,1.065353216000000000e+09
-1.460900020599365234e+01,-2.767799949645996094e+01,1.443200016021728516e+01,1.065353216000000000e+09
-1.547799968719482422e+01,-2.669799995422363281e+01,1.424699974060058594e+01,1.065353216000000000e+09
0.000000000000000000e+00,0.000000000000000000e+00,0.000000000000000000e+00,1.065353216000000000e+09
0.000000000000000000e+00,0.000000000000000000e+00,0.000000000000000000e+00,1.065353216000000000e+09
-1.408199977874755859e+01,-2.818899917602539062e+01,1.450300025939941406e+01,1.065353216000000000e+09
-1.494499969482421875e+01,-2.717099952697753906e+01,1.426799964904785156e+01,1.065353216000000000e+09
-9.967000007629394531e+00,-2.569599914550781250e+01,1.272399997711181641e+01,1.065353216000000000e+09
0.000000000000000000e+00,0.000000000000000000e+00,0.000000000000000000e+00,1.065353216000000000e+09
0.000000000000000000e+00,0.000000000000000000e+00,0.000000000000000000e+00,1.065353216000000000e+09
-1.444799995422363281e+01,-2.773399925231933594e+01,1.433600044250488281e+01,1.065353216000000000e+09
-8.958000183105468750e+00,-2.470100021362304688e+01,1.214500045776367188e+01,1.065353216000000000e+09
-1.058800029754638672e+01,-2.631699943542480469e+01,1.305399990081787109e+01,1.065353216000000000e+09
0.000000000000000000e+00,0.000000000000000000e+00,0.000000000000000000e+00,1.065353216000000000e+09
-1.387199974060058594e+01,-2.816500091552734375e+01,1.434099960327148438e+01,1.065353216000000000e+09
-8.102999687194824219e+00,-2.397100067138671875e+01,1.171199989318847656e+01,1.065353216000000000e+09
-9.338000297546386719e+00,-2.479400062561035156e+01,1.218599987030029297e+01,1.065353216000000000e+09
0.000000000000000000e+00,0.000000000000000000e+00,0.000000000000000000e+00,1.065353216000000000e+09
0.000000000000000000e+00,0.000000000000000000e+00,0.000000000000000000e+00,1.065353216000000000e+09
-7.278999805450439453e+00,-2.319700050354003906e+01,1.126799964904785156e+01,1.065353216000000000e+09
-8.593000411987304688e+00,-2.444400024414062500e+01,1.191399955749511719e+01,1.065353216000000000e+09
0.000000000000000000e+00,0.000000000000000000e+00,0.000000000000000000e+00,1.065353216000000000e+09
0.000000000000000000e+00,0.000000000000000000e+00,0.000000000000000000e+00,1.065353216000000000e+09
-5.889999866485595703e+00,-2.032799911499023438e+01,9.821999549865722656e+00,1.065353216000000000e+09
-7.703000068664550781e+00,-2.356500053405761719e+01,1.139599990844726562e+01,1.065353216000000000e+09
-9.175999641418457031e+00,-2.505599975585937500e+01,1.216100025177001953e+01,1.065353216000000000e+09
0.000000000000000000e+00,0.000000000000000000e+00,0.000000000000000000e+00,1.065353216000000000e+09
-5.385000228881835938e+00,-2.022599983215332031e+01,9.725999832153320312e+00,1.065353216000000000e+09
-6.702000141143798828e+00,-2.216600036621093750e+01,1.064099979400634766e+01,1.065353216000000000e+09
-8.258000373840332031e+00,-2.421699905395507812e+01,1.164000034332275391e+01,1.065353216000000000e+09
0.000000000000000000e+00,0.000000000000000000e+00,0.000000000000000000e+00,1.065353216000000000e+09
-5.000000000000000000e+00,-2.057799911499023438e+01,9.852999687194824219e+00,1.065353216000000000e+09
-5.647999763488769531e+00,-2.029000091552734375e+01,9.675000190734863281e+00,1.065353216000000000e+09
-7.381999969482421875e+00,-2.334900093078613281e+01,1.111800003051757812e+01,1.065353216000000000e+09
-8.760999679565429688e+00,-2.448600006103515625e+01,1.166300010681152344e+01,1.065353216000000000e+09
-4.560999870300292969e+00,-2.072999954223632812e+01,9.890000343322753906e+00,1.065353216000000000e+09
-5.204999923706054688e+00,-2.043799972534179688e+01,9.684000015258789062e+00,1.065353216000000000e+09
-6.579999923706054688e+00,-2.257900047302246094e+01,1.065400028228759766e+01,1.065353216000000000e+09
-7.894999980926513672e+00,-2.376300048828125000e+01,1.118799972534179688e+01,1.065353216000000000e+09
-3.974999904632568359e+00,-2.016600036621093750e+01,9.586999893188476562e+00,1.065353216000000000e+09
-4.803999900817871094e+00,-2.078800010681152344e+01,9.793000221252441406e+00,1.065353216000000000e+09
-5.409999847412109375e+00,-2.024799919128417969e+01,9.475000381469726562e+00,1.065353216000000000e+09
-7.022999763488769531e+00,-2.289200019836425781e+01,1.065600013732910156e+01,1.065353216000000000e+09
-3.338000059127807617e+00,-1.913500022888183594e+01,9.069000244140625000e+00,1.065353216000000000e+09
-4.258999824523925781e+00,-2.048399925231933594e+01,9.598999977111816406e+00,1.065353216000000000e+09
-5.000000000000000000e+00,-2.056999969482421875e+01,9.550000190734863281e+00,1.065353216000000000e+09
-5.725999832153320312e+00,-2.031200027465820312e+01,9.359000205993652344e+00,1.065353216000000000e+09
-2.904000043869018555e+00,-1.908900070190429688e+01,9.026000022888183594e+00,1.065353216000000000e+09
-3.591000080108642578e+00,-1.941399955749511719e+01,9.053999900817871094e+00,1.065353216000000000e+09
-4.558000087738037109e+00,-2.077899932861328125e+01,9.578000068664550781e+00,1.065353216000000000e+09
-5.243000030517578125e+00,-2.039299964904785156e+01,9.300999641418457031e+00,1.065353216000000000e+09
-2.437999963760375977e+00,-1.875399971008300781e+01,8.852000236511230469e+00,1.065353216000000000e+09
-3.138999938964843750e+00,-1.937599945068359375e+01,8.996000289916992188e+00,1.065353216000000000e+09
-3.872999906539916992e+00,-1.977099990844726562e+01,9.052000045776367188e+00,1.065353216000000000e+09
-4.705999851226806641e+00,-2.022200012207031250e+01,9.137000083923339844e+00,1.065353216000000000e+09
-1.978000044822692871e+00,-1.834300041198730469e+01,8.642999649047851562e+00,1.065353216000000000e+09
-2.641000032424926758e+00,-1.894300079345703125e+01,8.762999534606933594e+00,1.065353216000000000e+09
-3.394000053405761719e+00,-1.966699981689453125e+01,8.949999809265136719e+00,1.065353216000000000e+09
-4.236000061035156250e+00,-2.031100082397460938e+01,9.095999717712402344e+00,1.065353216000000000e+09
-1.542999982833862305e+00,-1.790299987792968750e+01,8.428000450134277344e+00,1.065353216000000000e+09
-2.161999940872192383e+00,-1.848500061035156250e+01,8.522000312805175781e+00,1.065353216000000000e+09
-2.868000030517578125e+00,-1.919300079345703125e+01,8.685000419616699219e+00,1.065353216000000000e+09
-3.677000045776367188e+00,-1.991699981689453125e+01,8.847000122070312500e+00,1.065353216000000000e+09
-1.126999974250793457e+00,-1.753899955749511719e+01,8.251999855041503906e+00,1.065353216000000000e+09
-1.715999960899353027e+00,-1.812999916076660156e+01,8.335000038146972656e+00,1.065353216000000000e+09
-2.365999937057495117e+00,-1.873399925231933594e+01,8.430000305175781250e+00,1.065353216000000000e+09
-3.125999927520751953e+00,-1.943400001525878906e+01,8.565999984741210938e+00,1.065353216000000000e+09
-7.310000061988830566e-01,-1.715699958801269531e+01,8.069999694824218750e+00,1.065353216000000000e+09
-1.277999997138977051e+00,-1.769599914550781250e+01,8.116000175476074219e+00,1.065353216000000000e+09
-1.889999985694885254e+00,-1.827700042724609375e+01,8.187999725341796875e+00,1.065353216000000000e+09
-2.596999883651733398e+00,-1.895299911499023438e+01,8.291999816894531250e+00,1.065353216000000000e+09
-3.499999940395355225e-01,-1.682900047302246094e+01,7.916999816894531250e+00,1.065353216000000000e+09
-8.669999837875366211e-01,-1.731200027465820312e+01,7.923999786376953125e+00,1.065353216000000000e+09
-1.437000036239624023e+00,-1.786499977111816406e+01,7.967999935150146484e+00,1.065353216000000000e+09
-2.098000049591064453e+00,-1.849099922180175781e+01,8.036999702453613281e+00,1.065353216000000000e+09
1.200000010430812836e-02,-1.646899986267089844e+01,7.751999855041503906e+00,1.065353216000000000e+09
-4.709999859333038330e-01,-1.694400024414062500e+01,7.743000030517578125e+00,1.065353216000000000e+09
-9.950000047683715820e-01,-1.724799919128417969e+01,7.664000034332275391e+00,1.065353216000000000e+09
-1.585999965667724609e+00,-1.765800094604492188e+01,7.626999855041503906e+00,1.065353216000000000e+09
3.510000109672546387e-01,-1.575300025939941406e+01,7.425000190734863281e+00,1.065353216000000000e+09
-9.200000017881393433e-02,-1.618400001525878906e+01,7.388999938964843750e+00,1.065353216000000000e+09
-5.899999737739562988e-01,-1.683799934387207031e+01,7.458000183105468750e+00,1.065353216000000000e+09
-1.169000029563903809e+00,-1.759399986267089844e+01,7.556000232696533203e+00,1.065353216000000000e+09
6.890000104904174805e-01,-1.571700000762939453e+01,7.419000148773193359e+00,1.065353216000000000e+09
2.649999856948852539e-01,-1.624900054931640625e+01,7.414999961853027344e+00,1.065353216000000000e+09
-2.039999961853027344e-01,-1.673500061035156250e+01,7.392000198364257812e+00,1.065353216000000000e+09
-7.450000047683715820e-01,-1.726700019836425781e+01,7.377999782562255859e+00,1.065353216000000000e+09
1.018000006675720215e+00,-1.552900028228759766e+01,7.343999862670898438e+00,1.065353216000000000e+09
6.119999885559082031e-01,-1.593999958038330078e+01,7.272999763488769531e+00,1.065353216000000000e+09
1.700000017881393433e-01,-1.638199996948242188e+01,7.219999790191650391e+00,1.065353216000000000e+09
-3.339999914169311523e-01,-1.686899948120117188e+01,7.177000045776367188e+00,1.065353216000000000e+09
1.328999996185302734e+00,-1.524100017547607422e+01,7.224999904632568359e+00,1.065353216000000000e+09
9.480000138282775879e-01,-1.561699962615966797e+01,7.126999855041503906e+00,1.065353216000000000e+09
5.339999794960021973e-01,-1.604599952697753906e+01,7.059000015258789062e+00,1.065353216000000000e+09
5.999999865889549255e-02,-1.649699974060058594e+01,6.989999771118164062e+00,1.065353216000000000e+09
1.633000016212463379e+00,-1.498400020599365234e+01,7.123000144958496094e+00,1.065353216000000000e+09
1.273000001907348633e+00,-1.532600021362304688e+01,7.000999927520751953e+00,1.065353216000000000e+09
8.799999952316284180e-01,-1.571199989318847656e+01,6.905000209808349609e+00,1.065353216000000000e+09
4.399999976158142090e-01,-1.615600013732910156e+01,6.820000171661376953e+00,1.065353216000000000e+09
1.922000050544738770e+00,-1.469400024414062500e+01,7.006999969482421875e+00,1.065353216000000000e+09
1.585000038146972656e+00,-1.504500007629394531e+01,6.881000041961669922e+00,1.065353216000000000e+09
1.213999986648559570e+00,-1.540600013732910156e+01,6.765999794006347656e+00,1.065353216000000000e+09
8.019999861717224121e-01,-1.584700012207031250e+01,6.671999931335449219e+00,1.065353216000000000e+09
2.203999996185302734e+00,-1.442599964141845703e+01,6.903999805450439453e+00,1.065353216000000000e+09
1.883999943733215332e+00,-1.475000000000000000e+01,6.757999897003173828e+00,1.065353216000000000e+09
1.542000055313110352e+00,-1.513099956512451172e+01,6.642000198364257812e+00,1.065353216000000000e+09
1.149999976158142090e+00,-1.551200008392333984e+01,6.515999794006347656e+00,1.065353216000000000e+09
2.474999904632568359e+00,-1.415799999237060547e+01,6.802999973297119141e+00,1.065353216000000000e+09
2.177999973297119141e+00,-1.448600006103515625e+01,6.652999877929687500e+00,1.065353216000000000e+09
1.848000049591064453e+00,-1.481900024414062500e+01,6.508999824523925781e+00,1.065353216000000000e+09
1.483999967575073242e+00,-1.517599964141845703e+01,6.363999843597412109e+00,1.065353216000000000e+09
2.736999988555908203e+00,-1.389799976348876953e+01,6.708000183105468750e+00,1.065353216000000000e+09
2.457000017166137695e+00,-1.421300029754638672e+01,6.546000003814697266e+00,1.065353216000000000e+09
2.151999950408935547e+00,-1.453499984741210938e+01,6.388999938964843750e+00,1.065353216000000000e+09
1.807999968528747559e+00,-1.487500000000000000e+01,6.231999874114990234e+00,1.065353216000000000e+09
2.999000072479248047e+00,-1.367500019073486328e+01,6.632999897003173828e+00,1.065353216000000000e+09
2.730999946594238281e+00,-1.395600032806396484e+01,6.447999954223632812e+00,1.065353216000000000e+09
2.440999984741210938e+00,-1.424100017547607422e+01,6.269000053405761719e+00,1.065353216000000000e+09
2.094000101089477539e+00,-1.437600040435791016e+01,6.018000125885009766e+00,1.065353216000000000e+09
3.252000093460083008e+00,-1.344099998474121094e+01,6.553999900817871094e+00,1.065353216000000000e+09
2.999000072479248047e+00,-1.370199966430664062e+01,6.353000164031982422e+00,1.065353216000000000e+09
2.730000019073486328e+00,-1.398700046539306641e+01,6.168000221252441406e+00,1.065353216000000000e+09
2.374000072479248047e+00,-1.396300029754638672e+01,5.843999862670898438e+00,1.065353216000000000e+09
3.178999900817871094e+00,-1.201000022888183594e+01,5.889999866485595703e+00,1.065353216000000000e+09
3.259999990463256836e+00,-1.345400047302246094e+01,6.263999938964843750e+00,1.065353216000000000e+09
2.994999885559082031e+00,-1.368000030517578125e+01,6.046999931335449219e+00,1.065353216000000000e+09
2.710999965667724609e+00,-1.394799995422363281e+01,5.841000080108642578e+00,1.065353216000000000e+09
3.563999891281127930e+00,-1.238000011444091797e+01,6.109000205993652344e+00,1.065353216000000000e+09
3.200999975204467773e+00,-1.204300022125244141e+01,5.632999897003173828e+00,1.065353216000000000e+09
3.164000034332275391e+00,-1.301200008392333984e+01,5.769000053405761719e+00,1.065353216000000000e+09
3.015000104904174805e+00,-1.377000045776367188e+01,5.774000167846679688e+00,1.065353216000000000e+09
3.936000108718872070e+00,-1.265100002288818359e+01,6.283999919891357422e+00,1.065353216000000000e+09
3.503999948501586914e+00,-1.209799957275390625e+01,5.688000202178955078e+00,1.065353216000000000e+09
3.221999883651733398e+00,-1.204500007629394531e+01,5.359000205993652344e+00,1.065353216000000000e+09
3.299000024795532227e+00,-1.351799964904785156e+01,5.677999973297119141e+00,1.065353216000000000e+09
4.197000026702880859e+00,-1.253999996185302734e+01,6.274000167846679688e+00,1.065353216000000000e+09
3.799999952316284180e+00,-1.211400032043457031e+01,5.729000091552734375e+00,1.065353216000000000e+09
3.654000043869018555e+00,-1.250800037384033203e+01,5.589000225067138672e+00,1.065353216000000000e+09
3.246999979019165039e+00,-1.206700038909912109e+01,5.081999778747558594e+00,1.065353216000000000e+09
4.416999816894531250e+00,-1.231799983978271484e+01,6.209000110626220703e+00,1.065353216000000000e+09
4.145999908447265625e+00,-1.225399971008300781e+01,5.829999923706054688e+00,1.065353216000000000e+09
4.039999961853027344e+00,-1.273999977111816406e+01,5.719999790191650391e+00,1.065353216000000000e+09
3.711999893188476562e+00,-1.258800029754638672e+01,5.315999984741210938e+00,1.065353216000000000e+09
4.637000083923339844e+00,-1.211499977111816406e+01,6.155000209808349609e+00,1.065353216000000000e+09
4.361999988555908203e+00,-1.201200008392333984e+01,5.752999782562255859e+00,1.065353216000000000e+09
4.291999816894531250e+00,-1.252400016784667969e+01,5.651999950408935547e+00,1.065353216000000000e+09
4.092000007629394531e+00,-1.274699974060058594e+01,5.402999877929687500e+00,1.065353216000000000e+09
4.843999862670898438e+00,-1.188399982452392578e+01,6.089000225067138672e+00,1.065353216000000000e+09
4.585000038146972656e+00,-1.180000019073486328e+01,5.690999984741210938e+00,1.065353216000000000e+09
4.526999950408935547e+00,-1.228499984741210938e+01,5.576000213623046875e+00,1.065353216000000000e+09
4.348000049591064453e+00,-1.251700019836425781e+01,5.328999996185302734e+00,1.065353216000000000e+09
5.064000129699707031e+00,-1.170600032806396484e+01,6.051000118255615234e+00,1.065353216000000000e+09
4.854000091552734375e+00,-1.171899986267089844e+01,5.696000099182128906e+00,1.065353216000000000e+09
4.738999843597412109e+00,-1.200000000000000000e+01,5.480999946594238281e+00,1.065353216000000000e+09
4.593999862670898438e+00,-1.227400016784667969e+01,5.250999927520751953e+00,1.065353216000000000e+09
5.230000019073486328e+00,-1.140999984741210938e+01,5.953000068664550781e+00,1.065353216000000000e+09
5.125000000000000000e+00,-1.163799953460693359e+01,5.704999923706054688e+00,1.065353216000000000e+09
4.994999885559082031e+00,-1.184599971771240234e+01,5.449999809265136719e+00,1.065353216000000000e+09
4.827000141143798828e+00,-1.201299953460693359e+01,5.168000221252441406e+00,1.065353216000000000e+09
5.453999996185302734e+00,-1.126000022888183594e+01,5.933000087738037109e+00,1.065353216000000000e+09
5.340000152587890625e+00,-1.143000030517578125e+01,5.651999950408935547e+00,1.065353216000000000e+09
5.217000007629394531e+00,-1.161999988555908203e+01,5.387000083923339844e+00,1.065353216000000000e+09
5.072000026702880859e+00,-1.180799961090087891e+01,5.114999771118164062e+00,1.065353216000000000e+09
5.625999927520751953e+00,-1.101299953460693359e+01,5.862999916076660156e+00,1.065353216000000000e+09
5.556000232696533203e+00,-1.124199962615966797e+01,5.611999988555908203e+00,1.065353216000000000e+09
5.436999797821044922e+00,-1.140299987792968750e+01,5.330999851226806641e+00,1.065353216000000000e+09
5.309000015258789062e+00,-1.158399963378906250e+01,5.052000045776367188e+00,1.065353216000000000e+09
5.767000198364257812e+00,-1.072000026702880859e+01,5.769999980926513672e+00,1.065353216000000000e+09
5.764999866485595703e+00,-1.103899955749511719e+01,5.565999984741210938e+00,1.065353216000000000e+09
5.640999794006347656e+00,-1.116300010681152344e+01,5.267000198364257812e+00,1.065353216000000000e+09
5.535999774932861328e+00,-1.135499954223632812e+01,4.991000175476074219e+00,1.065353216000000000e+09
5.933000087738037109e+00,-1.048299980163574219e+01,5.706999778747558594e+00,1.065353216000000000e+09
5.968999862670898438e+00,-1.083399963378906250e+01,5.519999980926513672e+00,1.065353216000000000e+09
5.869999885559082031e+00,-1.097799968719482422e+01,5.229000091552734375e+00,1.065353216000000000e+09
5.769000053405761719e+00,-1.114500045776367188e+01,4.940999984741210938e+00,1.065353216000000000e+09
6.118999958038330078e+00,-1.029500007629394531e+01,5.672999858856201172e+00,1.065353216000000000e+09
6.153999805450439453e+00,-1.060700035095214844e+01,5.465000152587890625e+00,1.065353216000000000e+09
6.085000038146972656e+00,-1.077600002288818359e+01,5.185999870300292969e+00,1.065353216000000000e+09
5.989999771118164062e+00,-1.092300033569335938e+01,4.888000011444091797e+00,1.065353216000000000e+09
6.289999961853027344e+00,-1.008500003814697266e+01,5.625999927520751953e+00,1.065353216000000000e+09
6.377999782562255859e+00,-1.045300006866455078e+01,5.451000213623046875e+00,1.065353216000000000e+09
6.296000003814697266e+00,-1.056900024414062500e+01,5.142000198364257812e+00,1.065353216000000000e+09
6.190999984741210938e+00,-1.067599964141845703e+01,4.826000213623046875e+00,1.065353216000000000e+09
6.482999801635742188e+00,-9.916999816894531250e+00,5.605000019073486328e+00,1.065353216000000000e+09
6.567999839782714844e+00,-1.024400043487548828e+01,5.407999992370605469e+00,1.065353216000000000e+09
6.500000000000000000e+00,-1.036200046539306641e+01,5.102000236511230469e+00,1.065353216000000000e+09
6.428999900817871094e+00,-1.049600028991699219e+01,4.796999931335449219e+00,1.065353216000000000e+09
6.678999900817871094e+00,-9.758000373840332031e+00,5.591000080108642578e+00,1.065353216000000000e+09
6.762000083923339844e+00,-1.005200004577636719e+01,5.376999855041503906e+00,1.065353216000000000e+09
6.703999996185302734e+00,-1.015900039672851562e+01,5.064000129699707031e+00,1.065353216000000000e+09
6.647999763488769531e+00,-1.029100036621093750e+01,4.758999824523925781e+00,1.065353216000000000e+09
6.888000011444091797e+00,-9.619999885559082031e+00,5.591000080108642578e+00,1.065353216000000000e+09
6.953000068664550781e+00,-9.854000091552734375e+00,5.343999862670898438e+00,1.065353216000000000e+09
6.907000064849853516e+00,-9.958999633789062500e+00,5.031000137329101562e+00,1.065353216000000000e+09
6.853000164031982422e+00,-1.006999969482421875e+01,4.716000080108642578e+00,1.065353216000000000e+09
7.072000026702880859e+00,-9.442000389099121094e+00,5.568999767303466797e+00,1.065353216000000000e+09
7.144999980926513672e+00,-9.663999557495117188e+00,5.317999839782714844e+00,1.065353216000000000e+09
7.125999927520751953e+00,-9.781000137329101562e+00,5.012000083923339844e+00,1.065353216000000000e+09
7.065000057220458984e+00,-9.864000320434570312e+00,4.682000160217285156e+00,1.065353216000000000e+09
7.263999938964843750e+00,-9.281000137329101562e+00,5.559999942779541016e+00,1.065353216000000000e+09
7.282000064849853516e+00,-9.402000427246093750e+00,5.254000186920166016e+00,1.065353216000000000e+09
7.302000045776367188e+00,-9.550999641418457031e+00,4.967000007629394531e+00,1.065353216000000000e+09
7.284999847412109375e+00,-9.668000221252441406e+00,4.656000137329101562e+00,1.065353216000000000e+09
7.459000110626220703e+00,-9.123999595642089844e+00,5.554999828338623047e+00,1.065353216000000000e+09
7.545000076293945312e+00,-9.307999610900878906e+00,5.284999847412109375e+00,1.065353216000000000e+09
7.527999877929687500e+00,-9.385999679565429688e+00,4.958000183105468750e+00,1.065353216000000000e+09
7.493000030517578125e+00,-9.461999893188476562e+00,4.626999855041503906e+00,1.065353216000000000e+09
7.644000053405761719e+00,-8.953000068664550781e+00,5.543000221252441406e+00,1.065353216000000000e+09
7.721000194549560547e+00,-9.104999542236328125e+00,5.257999897003173828e+00,1.065353216000000000e+09
7.708000183105468750e+00,-9.168000221252441406e+00,4.925000190734863281e+00,1.065353216000000000e+09
7.701000213623046875e+00,-9.258000373840332031e+00,4.603000164031982422e+00,1.065353216000000000e+09
7.828000068664550781e+00,-8.781999588012695312e+00,5.533999919891357422e+00,1.065353216000000000e+09
7.907999992370605469e+00,-8.913000106811523438e+00,5.237999916076660156e+00,1.065353216000000000e+09
7.906000137329101562e+00,-8.975000381469726562e+00,4.907000064849853516e+00,1.065353216000000000e+09
7.889999866485595703e+00,-9.031000137329101562e+00,4.568999767303466797e+00,1.065353216000000000e+09
8.005999565124511719e+00,-8.602999687194824219e+00,5.520999908447265625e+00,1.065353216000000000e+09
8.114000320434570312e+00,-8.746000289916992188e+00,5.236000061035156250e+00,1.065353216000000000e+09
8.121000289916992188e+00,-8.796999931335449219e+00,4.900000095367431641e+00,1.065353216000000000e+09
8.119999885559082031e+00,-8.854000091552734375e+00,4.563000202178955078e+00,1.065353216000000000e+09
8.178999900817871094e+00,-8.423000335693359375e+00,5.510000228881835938e+00,1.065353216000000000e+09
8.291000366210937500e+00,-8.545000076293945312e+00,5.215000152587890625e+00,1.065353216000000000e+09
8.303999900817871094e+00,-8.586000442504882812e+00,4.876999855041503906e+00,1.065353216000000000e+09
8.302000045776367188e+00,-8.623000144958496094e+00,4.532000064849853516e+00,1.065353216000000000e+09
8.350999832153320312e+00,-8.241999626159667969e+00,5.500000000000000000e+00,1.065353216000000000e+09
8.479000091552734375e+00,-8.359000205993652344e+00,5.206999778747558594e+00,1.065353216000000000e+09
8.493000030517578125e+00,-8.385000228881835938e+00,4.861999988555908203e+00,1.065353216000000000e+09
8.524999618530273438e+00,-8.437999725341796875e+00,4.526999950408935547e+00,1.065353216000000000e+09
8.538000106811523438e+00,-8.072999954223632812e+00,5.500000000000000000e+00,1.065353216000000000e+09
8.671999931335449219e+00,-8.177000045776367188e+00,5.203999996185302734e+00,1.065353216000000000e+09
8.727999687194824219e+00,-8.222999572753906250e+00,4.873000144958496094e+00,1.065353216000000000e+09
8.730999946594238281e+00,-8.234000205993652344e+00,4.515999794006347656e+00,1.065353216000000000e+09
8.692999839782714844e+00,-7.875999927520751953e+00,5.484000205993652344e+00,1.065353216000000000e+09
8.873000144958496094e+00,-7.999000072479248047e+00,5.204999923706054688e+00,1.065353216000000000e+09
8.888999938964843750e+00,-7.993999958038330078e+00,4.847000122070312500e+00,1.065353216000000000e+09
8.928999900817871094e+00,-8.020000457763671875e+00,4.502999782562255859e+00,1.065353216000000000e+09
8.831000328063964844e+00,-7.664999961853027344e+00,5.459000110626220703e+00,1.065353216000000000e+09
9.048000335693359375e+00,-7.798999786376953125e+00,5.195000171661376953e+00,1.065353216000000000e+09
9.093000411987304688e+00,-7.803999900817871094e+00,4.847000122070312500e+00,1.065353216000000000e+09
9.083000183105468750e+00,-7.769999980926513672e+00,4.472000122070312500e+00,1.065353216000000000e+09
8.994000434875488281e+00,-7.477000236511230469e+00,5.453000068664550781e+00,1.065353216000000000e+09
9.232000350952148438e+00,-7.605999946594238281e+00,5.193999767303466797e+00,1.065353216000000000e+09
9.310999870300292969e+00,-7.620999813079833984e+00,4.855999946594238281e+00,1.065353216000000000e+09
9.352000236511230469e+00,-7.618000030517578125e+00,4.500000000000000000e+00,1.065353216000000000e+09
9.168000221252441406e+00,-7.295000076293945312e+00,5.453000068664550781e+00,1.065353216000000000e+09
9.423000335693359375e+00,-7.416999816894531250e+00,5.197000026702880859e+00,1.065353216000000000e+09
9.489999771118164062e+00,-7.406000137329101562e+00,4.847000122070312500e+00,1.065353216000000000e+09
9.567000389099121094e+00,-7.413000106811523438e+00,4.502999782562255859e+00,1.065353216000000000e+09
9.338999748229980469e+00,-7.111000061035156250e+00,5.453999996185302734e+00,1.065353216000000000e+09
9.621000289916992188e+00,-7.229000091552734375e+00,5.203999996185302734e+00,1.065353216000000000e+09
9.701000213623046875e+00,-7.215000152587890625e+00,4.856999874114990234e+00,1.065353216000000000e+09
9.751999855041503906e+00,-7.185999870300292969e+00,4.493999958038330078e+00,1.065353216000000000e+09
9.522000312805175781e+00,-6.932000160217285156e+00,5.464000225067138672e+00,1.065353216000000000e+09
9.810000419616699219e+00,-7.033999919891357422e+00,5.210999965667724609e+00,1.065353216000000000e+09
9.876999855041503906e+00,-6.992000102996826172e+00,4.848999977111816406e+00,1.065353216000000000e+09
9.977000236511230469e+00,-6.986000061035156250e+00,4.506999969482421875e+00,1.065353216000000000e+09
9.720000267028808594e+00,-6.763999938964843750e+00,5.484000205993652344e+00,1.065353216000000000e+09
1.001900005340576172e+01,-6.850999832153320312e+00,5.229000091552734375e+00,1.065353216000000000e+09
1.009500026702880859e+01,-6.800000190734863281e+00,4.867000102996826172e+00,1.065353216000000000e+09
1.018900012969970703e+01,-6.769999980926513672e+00,4.513999938964843750e+00,1.065353216000000000e+09
9.963999748229980469e+00,-6.622000217437744141e+00,5.530000209808349609e+00,1.065353216000000000e+09
1.019799995422363281e+01,-6.642000198364257812e+00,5.231999874114990234e+00,1.065353216000000000e+09
1.031099987030029297e+01,-6.602000236511230469e+00,4.885000228881835938e+00,1.065353216000000000e+09
1.040499973297119141e+01,-6.557000160217285156e+00,4.526999950408935547e+00,1.065353216000000000e+09
1.018799972534179688e+01,-6.460000038146972656e+00,5.565000057220458984e+00,1.065353216000000000e+09
1.040200042724609375e+01,-6.448999881744384766e+00,5.250000000000000000e+00,1.065353216000000000e+09
1.050699996948242188e+01,-6.388000011444091797e+00,4.894999980926513672e+00,1.065353216000000000e+09
1.063599967956542969e+01,-6.348000049591064453e+00,4.547999858856201172e+00,1.065353216000000000e+09
1.042700004577636719e+01,-6.302999973297119141e+00,5.610000133514404297e+00,1.065353216000000000e+09
1.058399963378906250e+01,-6.238999843597412109e+00,5.261000156402587891e+00,1.065353216000000000e+09
1.073799991607666016e+01,-6.189000129699707031e+00,4.921999931335449219e+00,1.065353216000000000e+09
1.081000041961669922e+01,-6.102000236511230469e+00,4.546000003814697266e+00,1.065353216000000000e+09
1.064599990844726562e+01,-6.127999782562255859e+00,5.644999980926513672e+00,1.065353216000000000e+09
1.072700023651123047e+01,-6.001999855041503906e+00,5.250999927520751953e+00,1.065353216000000000e+09
1.093200016021728516e+01,-5.966000080108642578e+00,4.934999942779541016e+00,1.065353216000000000e+09
1.106299972534179688e+01,-5.894000053405761719e+00,4.579999923706054688e+00,1.065353216000000000e+09
1.086299991607666016e+01,-5.947999954223632812e+00,5.679999828338623047e+00,1.065353216000000000e+09
1.093700027465820312e+01,-5.802000045776367188e+00,5.277999877929687500e+00,1.065353216000000000e+09
1.115600013732910156e+01,-5.752999782562255859e+00,4.960999965667724609e+00,1.065353216000000000e+09
1.130399990081787109e+01,-5.675000190734863281e+00,4.610000133514404297e+00,1.065353216000000000e+09
1.099600028991699219e+01,-5.715000152587890625e+00,5.671000003814697266e+00,1.065353216000000000e+09
1.112600040435791016e+01,-5.586999893188476562e+00,5.296000003814697266e+00,1.065353216000000000e+09
1.133800029754638672e+01,-5.515999794006347656e+00,4.973000049591064453e+00,1.065353216000000000e+09
1.152700042724609375e+01,-5.439000129699707031e+00,4.633999824523925781e+00,1.065353216000000000e+09
1.124699974060058594e+01,-5.543000221252441406e+00,5.724999904632568359e+00,1.065353216000000000e+09
1.112600040435791016e+01,-5.276000022888183594e+00,5.225999832153320312e+00,1.065353216000000000e+09
1.159300041198730469e+01,-5.309999942779541016e+00,5.018000125885009766e+00,1.065353216000000000e+09
1.175500011444091797e+01,-5.202000141143798828e+00,4.663000106811523438e+00,1.065353216000000000e+09
1.145100021362304688e+01,-5.339000225067138672e+00,5.754000186920166016e+00,1.065353216000000000e+09
1.135700035095214844e+01,-5.077000141143798828e+00,5.268000125885009766e+00,1.065353216000000000e+09
1.182600021362304688e+01,-5.084000110626220703e+00,5.053999900817871094e+00,1.065353216000000000e+09
1.195300006866455078e+01,-4.947999954223632812e+00,4.683000087738037109e+00,1.065353216000000000e+09
1.164900016784667969e+01,-5.131999969482421875e+00,5.784999847412109375e+00,1.065353216000000000e+09
1.159000015258789062e+01,-4.873000144958496094e+00,5.311999797821044922e+00,1.065353216000000000e+09
1.203899955749511719e+01,-4.846000194549560547e+00,5.084000110626220703e+00,1.065353216000000000e+09
1.222999954223632812e+01,-4.717999935150146484e+00,4.735000133514404297e+00,1.065353216000000000e+09
1.186999988555908203e+01,-4.925000190734863281e+00,5.826000213623046875e+00,1.065353216000000000e+09
1.195400047302246094e+01,-4.712999820709228516e+00,5.418000221252441406e+00,1.065353216000000000e+09
1.225599956512451172e+01,-4.604000091552734375e+00,5.117000102996826172e+00,1.065353216000000000e+09
1.238300037384033203e+01,-4.433000087738037109e+00,4.738999843597412109e+00,1.065353216000000000e+09
1.206499958038330078e+01,-4.704999923706054688e+00,5.856999874114990234e+00,1.065353216000000000e+09
1.164999961853027344e+01,-4.291999816894531250e+00,5.222000122070312500e+00,1.065353216000000000e+09
1.218700027465820312e+01,-4.256000041961669922e+00,5.035999774932861328e+00,1.065353216000000000e+09
1.194900035858154297e+01,-3.953999996185302734e+00,4.526000022888183594e+00,1.065353216000000000e+09
1.228499984741210938e+01,-4.486000061035156250e+00,5.899000167846679688e+00,1.065353216000000000e+09
1.208899974822998047e+01,-4.147999763488769531e+00,5.361999988555908203e+00,1.065353216000000000e+09
1.168200016021728516e+01,-3.773999929428100586e+00,4.776999950408935547e+00,1.065353216000000000e+09
1.181499958038330078e+01,-3.592999935150146484e+00,4.432000160217285156e+00,1.065353216000000000e+09
1.216600036621093750e+01,-4.147999763488769531e+00,5.782999992370605469e+00,1.065353216000000000e+09
1.161299991607666016e+01,-3.693000078201293945e+00,5.099999904632568359e+00,1.065353216000000000e+09
1.184000015258789062e+01,-3.522000074386596680e+00,4.796999931335449219e+00,1.065353216000000000e+09
1.324499988555908203e+01,-3.678999900817871094e+00,4.922999858856201172e+00,1.065353216000000000e+09
1.164700031280517578e+01,-3.693000078201293945e+00,5.482999801635742188e+00,1.065353216000000000e+09
1.183300018310546875e+01,-3.471999883651733398e+00,5.149000167846679688e+00,1.065353216000000000e+09
1.295800018310546875e+01,-3.525000095367431641e+00,5.203000068664550781e+00,1.065353216000000000e+09
1.352200031280517578e+01,-3.405999898910522461e+00,4.985000133514404297e+00,1.065353216000000000e+09
1.176700019836425781e+01,-3.450999975204467773e+00,5.486000061035156250e+00,1.065353216000000000e+09
1.322700023651123047e+01,-3.559999942779541016e+00,5.704999923706054688e+00,1.065353216000000000e+09
1.345600032806396484e+01,-3.325000047683715820e+00,5.359000205993652344e+00,1.065353216000000000e+09
1.378899955749511719e+01,-3.118000030517578125e+00,5.045000076293945312e+00,1.065353216000000000e+09
1.320100021362304688e+01,-3.563999891281127930e+00,6.100999832153320312e+00,1.065353216000000000e+09
1.348200035095214844e+01,-3.302000045776367188e+00,5.765999794006347656e+00,1.065353216000000000e+09
1.379300022125244141e+01,-3.068000078201293945e+00,5.451000213623046875e+00,1.065353216000000000e+09
1.397099971771240234e+01,-2.805000066757202148e+00,5.076000213623046875e+00,1.065353216000000000e+09
1.342899990081787109e+01,-3.315000057220458984e+00,6.155000209808349609e+00,1.065353216000000000e+09
1.376099967956542969e+01,-3.043999910354614258e+00,5.840000152587890625e+00,1.065353216000000000e+09
1.406099987030029297e+01,-2.782000064849853516e+00,5.517000198364257812e+00,1.065353216000000000e+09
1.406299972534179688e+01,-2.470999956130981445e+00,5.077000141143798828e+00,1.065353216000000000e+09
1.367700004577636719e+01,-3.061000108718872070e+00,6.217000007629394531e+00,1.065353216000000000e+09
1.400399971008300781e+01,-2.767999887466430664e+00,5.901999950408935547e+00,1.065353216000000000e+09
1.432499980926513672e+01,-2.490999937057495117e+00,5.585999965667724609e+00,1.065353216000000000e+09
1.455599975585937500e+01,-2.196000099182128906e+00,5.225999832153320312e+00,1.065353216000000000e+09
1.393999958038330078e+01,-2.803999900817871094e+00,6.289000034332275391e+00,1.065353216000000000e+09
1.425500011444091797e+01,-2.484999895095825195e+00,5.967000007629394531e+00,1.065353216000000000e+09
1.464299964904785156e+01,-2.191999912261962891e+00,5.676000118255615234e+00,1.065353216000000000e+09
1.499499988555908203e+01,-1.891999959945678711e+00,5.357999801635742188e+00,1.065353216000000000e+09
1.418200016021728516e+01,-2.533999919891357422e+00,6.353000164031982422e+00,1.065353216000000000e+09
1.455500030517578125e+01,-2.200999975204467773e+00,6.054999828338623047e+00,1.065353216000000000e+09
1.495600032806396484e+01,-1.881999969482421875e+00,5.765999794006347656e+00,1.065353216000000000e+09
1.532499980926513672e+01,-1.555999994277954102e+00,5.451000213623046875e+00,1.065353216000000000e+09
1.446100044250488281e+01,-2.260999917984008789e+00,6.434999942779541016e+00,1.065353216000000000e+09
1.485400009155273438e+01,-1.901000022888183594e+00,6.143000125885009766e+00,1.065353216000000000e+09
1.525399971008300781e+01,-1.559000015258789062e+00,5.854000091552734375e+00,1.065353216000000000e+09
1.568500041961669922e+01,-1.210000038146972656e+00,5.558000087738037109e+00,1.065353216000000000e+09
1.463199996948242188e+01,-1.960000038146972656e+00,6.467999935150146484e+00,1.065353216000000000e+09
1.514200019836425781e+01,-1.588999986648559570e+00,6.228000164031982422e+00,1.065353216000000000e+09
1.556400012969970703e+01,-1.220000028610229492e+00,5.947999954223632812e+00,1.065353216000000000e+09
1.600600051879882812e+01,-8.429999947547912598e-01,5.653999805450439453e+00,1.065353216000000000e+09
1.465100002288818359e+01,-1.636000037193298340e+00,6.436999797821044922e+00,1.065353216000000000e+09
1.545100021362304688e+01,-1.269000053405761719e+00,6.324999809265136719e+00,1.065353216000000000e+09
1.591499996185302734e+01,-8.709999918937683105e-01,6.058000087738037109e+00,1.065353216000000000e+09
1.636800003051757812e+01,-4.659999907016754150e-01,5.769000053405761719e+00,1.065353216000000000e+09
1.525300025939941406e+01,-1.366999983787536621e+00,6.664000034332275391e+00,1.065353216000000000e+09
1.566199970245361328e+01,-9.300000071525573730e-01,6.383999824523925781e+00,1.065353216000000000e+09
1.626399993896484375e+01,-5.090000033378601074e-01,6.171999931335449219e+00,1.065353216000000000e+09
1.675799942016601562e+01,-7.199999690055847168e-02,5.895999908447265625e+00,1.065353216000000000e+09
1.561699962615966797e+01,-1.057000041007995605e+00,6.789999961853027344e+00,1.065353216000000000e+09
1.575500011444091797e+01,-5.780000090599060059e-01,6.400000095367431641e+00,1.065353216000000000e+09
1.663400077819824219e+01,-1.309999972581863403e-01,6.296999931335449219e+00,1.065353216000000000e+09
1.715399932861328125e+01,3.400000035762786865e-01,6.028999805450439453e+00,1.065353216000000000e+09
1.594600009918212891e+01,-7.289999723434448242e-01,6.901000022888183594e+00,1.065353216000000000e+09
1.645800018310546875e+01,-2.280000001192092896e-01,6.660999774932861328e+00,1.065353216000000000e+09
1.659000015258789062e+01,2.569999992847442627e-01,6.269999980926513672e+00,1.065353216000000000e+09
1.758399963378906250e+01,7.770000100135803223e-01,6.177000045776367188e+00,1.065353216000000000e+09
1.626499938964843750e+01,-3.880000114440917969e-01,7.011000156402587891e+00,1.065353216000000000e+09
1.682799911499023438e+01,1.480000019073486328e-01,6.791999816894531250e+00,1.065353216000000000e+09
1.740699958801269531e+01,6.800000071525573730e-01,6.567999839782714844e+00,1.065353216000000000e+09
1.757099914550781250e+01,1.202000021934509277e+00,6.173999786376953125e+00,1.065353216000000000e+09
1.659799957275390625e+01,-2.899999916553497314e-02,7.125999927520751953e+00,1.065353216000000000e+09
1.720800018310546875e+01,5.410000085830688477e-01,6.931000232696533203e+00,1.065353216000000000e+09
1.782999992370605469e+01,1.115000009536743164e+00,6.723999977111816406e+00,1.065353216000000000e+09
1.845599937438964844e+01,1.713999986648559570e+00,6.488999843597412109e+00,1.065353216000000000e+09
1.696999931335449219e+01,3.429999947547912598e-01,7.261000156402587891e+00,1.065353216000000000e+09
1.758399963378906250e+01,9.559999704360961914e-01,7.067999839782714844e+00,1.065353216000000000e+09
1.826799964904785156e+01,1.572999954223632812e+00,6.888000011444091797e+00,1.065353216000000000e+09
1.891399955749511719e+01,2.217000007629394531e+00,6.659999847412109375e+00,1.065353216000000000e+09
