x,y,z,intensity
1.743999958038330078e+00,-9.769999980926513672e-01,1.973999977111816406e+00,1.065353216000000000e+09
1.891999959945678711e+00,-1.037999987602233887e+00,1.957999944686889648e+00,1.065353216000000000e+09
1.467000007629394531e+00,-8.109999895095825195e-01,1.968999981880187988e+00,1.065353216000000000e+09
1.613999962806701660e+00,-8.719999790191650391e-01,1.965000033378601074e+00,1.065353216000000000e+09
1.758999943733215332e+00,-9.330000281333923340e-01,1.963000059127807617e+00,1.065353216000000000e+09
1.921000003814697266e+00,-9.959999918937683105e-01,1.960999965667724609e+00,1.065353216000000000e+09
1.485999941825866699e+00,-7.820000052452087402e-01,1.973000049591064453e+00,1.065353216000000000e+09
1.633000016212463379e+00,-8.370000123977661133e-01,1.963999986648559570e+00,1.065353216000000000e+09
1.779999971389770508e+00,-8.939999938011169434e-01,1.962000012397766113e+00,1.065353216000000000e+09
1.950000047683715820e+00,-9.539999961853027344e-01,1.963999986648559570e+00,1.065353216000000000e+09
1.500000000000000000e+00,-7.509999871253967285e-01,1.972000002861022949e+00,1.065353216000000000e+09
1.649000048637390137e+00,-8.009999990463256836e-01,1.962000012397766113e+00,1.065353216000000000e+09
1.799999952316284180e+00,-8.529999852180480957e-01,1.960000038146972656e+00,1.065353216000000000e+09
1.968000054359436035e+00,-9.049999713897705078e-01,1.955999970436096191e+00,1.065353216000000000e+09
1.508000016212463379e+00,-7.160000205039978027e-01,1.962000012397766113e+00,1.065353216000000000e+09
1.666000008583068848e+00,-7.649999856948852539e-01,1.960000038146972656e+00,1.065353216000000000e+09
1.827999949455261230e+00,-8.159999847412109375e-01,1.967000007629394531e+00,1.065353216000000000e+09
1.990000009536743164e+00,-8.590000271797180176e-01,1.953999996185302734e+00,1.065353216000000000e+09
1.524000048637390137e+00,-6.859999895095825195e-01,1.965999960899353027e+00,1.065353216000000000e+09
1.684000015258789062e+00,-7.289999723434448242e-01,1.960999965667724609e+00,1.065353216000000000e+09
1.835000038146972656e+00,-7.699999809265136719e-01,1.952999949455261230e+00,1.065353216000000000e+09
2.009999990463256836e+00,-8.119999766349792480e-01,1.952000021934509277e+00,1.065353216000000000e+09
1.536000013351440430e+00,-6.529999971389770508e-01,1.962000012397766113e+00,1.065353216000000000e+09
1.692000031471252441e+00,-6.890000104904174805e-01,1.950999975204467773e+00,1.065353216000000000e+09
1.851999998092651367e+00,-7.279999852180480957e-01,1.950999975204467773e+00,1.065353216000000000e+09
2.033999919891357422e+00,-7.670000195503234863e-01,1.953999996185302734e+00,1.065353216000000000e+09
1.542000055313110352e+00,-6.190000176429748535e-01,1.953999996185302734e+00,1.065353216000000000e+09
1.707000017166137695e+00,-6.529999971389770508e-01,1.950999975204467773e+00,1.065353216000000000e+09
1.873000025749206543e+00,-6.880000233650207520e-01,1.955000042915344238e+00,1.065353216000000000e+09
2.046999931335449219e+00,-7.170000076293945312e-01,1.947999954223632812e+00,1.065353216000000000e+09
1.559999942779541016e+00,-5.889999866485595703e-01,1.960000038146972656e+00,1.065353216000000000e+09
1.718000054359436035e+00,-6.140000224113464355e-01,1.947000026702880859e+00,1.065353216000000000e+09
1.883999943733215332e+00,-6.439999938011169434e-01,1.949000000953674316e+00,1.065353216000000000e+09
2.062999963760375977e+00,-6.690000295639038086e-01,1.945000052452087402e+00,1.065353216000000000e+09
1.572000026702880859e+00,-5.569999814033508301e-01,1.960999965667724609e+00,1.065353216000000000e+09
1.735999941825866699e+00,-5.789999961853027344e-01,1.950999975204467773e+00,1.065353216000000000e+09
1.901999950408935547e+00,-6.019999980926513672e-01,1.950000047683715820e+00,1.065353216000000000e+09
2.075999975204467773e+00,-6.190000176429748535e-01,1.940000057220458984e+00,1.065353216000000000e+09
1.580000042915344238e+00,-5.230000019073486328e-01,1.955999970436096191e+00,1.065353216000000000e+09
1.751999974250793457e+00,-5.419999957084655762e-01,1.952999949455261230e+00,1.065353216000000000e+09
1.914000034332275391e+00,-5.580000281333923340e-01,1.947000026702880859e+00,1.065353216000000000e+09
2.088000059127807617e+00,-5.699999928474426270e-01,1.935999989509582520e+00,1.065353216000000000e+09
1.595000028610229492e+00,-4.920000135898590088e-01,1.960999965667724609e+00,1.065353216000000000e+09
1.761000037193298340e+00,-5.030000209808349609e-01,1.950000047683715820e+00,1.065353216000000000e+09
1.927000045776367188e+00,-5.149999856948852539e-01,1.945999979972839355e+00,1.065353216000000000e+09
2.102999925613403320e+00,-5.210000276565551758e-01,1.937000036239624023e+00,1.065353216000000000e+09
1.605000019073486328e+00,-4.589999914169311523e-01,1.960999965667724609e+00,1.065353216000000000e+09
1.768000006675720215e+00,-4.629999995231628418e-01,1.944000005722045898e+00,1.065353216000000000e+09
1.939000010490417480e+00,-4.709999859333038330e-01,1.945000052452087402e+00,1.065353216000000000e+09
2.115999937057495117e+00,-4.720000028610229492e-01,1.935999989509582520e+00,1.065353216000000000e+09
1.610999941825866699e+00,-4.239999949932098389e-01,1.955999970436096191e+00,1.065353216000000000e+09
1.781999945640563965e+00,-4.259999990463256836e-01,1.947999954223632812e+00,1.065353216000000000e+09
1.945999979972839355e+00,-4.269999861717224121e-01,1.940000057220458984e+00,1.065353216000000000e+09
2.121999979019165039e+00,-4.210000038146972656e-01,1.929999947547912598e+00,1.065353216000000000e+09
1.618000030517578125e+00,-3.899999856948852539e-01,1.952000021934509277e+00,1.065353216000000000e+09
1.781999945640563965e+00,-3.849999904632568359e-01,1.937000036239624023e+00,1.065353216000000000e+09
1.950999975204467773e+00,-3.819999992847442627e-01,1.934999942779541016e+00,1.065353216000000000e+09
2.135999917984008789e+00,-3.720000088214874268e-01,1.932000041007995605e+00,1.065353216000000000e+09
1.626999974250793457e+00,-3.569999933242797852e-01,1.952000021934509277e+00,1.065353216000000000e+09
1.789999961853027344e+00,-3.459999859333038330e-01,1.934999942779541016e+00,1.065353216000000000e+09
1.960000038146972656e+00,-3.379999995231628418e-01,1.934000015258789062e+00,1.065353216000000000e+09
2.144999980926513672e+00,-3.219999969005584717e-01,1.930999994277954102e+00,1.065353216000000000e+09
1.631000041961669922e+00,-3.230000138282775879e-01,1.947999954223632812e+00,1.065353216000000000e+09
1.804000020027160645e+00,-3.079999983310699463e-01,1.940999984741210938e+00,1.065353216000000000e+09
1.970000028610229492e+00,-2.939999997615814209e-01,1.934000015258789062e+00,1.065353216000000000e+09
2.142999887466430664e+00,-2.700000107288360596e-01,1.922000050544738770e+00,1.065353216000000000e+09
1.638000011444091797e+00,-2.890000045299530029e-01,1.947000026702880859e+00,1.065353216000000000e+09
1.804999947547912598e+00,-2.680000066757202148e-01,1.934000015258789062e+00,1.065353216000000000e+09
1.972000002861022949e+00,-2.479999959468841553e-01,1.929000020027160645e+00,1.065353216000000000e+09
2.147000074386596680e+00,-2.199999988079071045e-01,1.919000029563903809e+00,1.065353216000000000e+09
1.643000006675720215e+00,-2.549999952316284180e-01,1.944000005722045898e+00,1.065353216000000000e+09
1.807999968528747559e+00,-2.280000001192092896e-01,1.929999947547912598e+00,1.065353216000000000e+09
1.983000040054321289e+00,-2.039999961853027344e-01,1.932999968528747559e+00,1.065353216000000000e+09
2.157999992370605469e+00,-1.700000017881393433e-01,1.924000024795532227e+00,1.065353216000000000e+09
1.644000053405761719e+00,-2.199999988079071045e-01,1.937000036239624023e+00,1.065353216000000000e+09
1.815000057220458984e+00,-1.889999955892562866e-01,1.929999947547912598e+00,1.065353216000000000e+09
1.983999967575073242e+00,-1.589999943971633911e-01,1.929000020027160645e+00,1.065353216000000000e+09
2.157999992370605469e+00,-1.190000027418136597e-01,1.919999957084655762e+00,1.065353216000000000e+09
1.646999955177307129e+00,-1.860000044107437134e-01,1.934999942779541016e+00,1.065353216000000000e+09
1.824000000953674316e+00,-1.500000059604644775e-01,1.934999942779541016e+00,1.065353216000000000e+09
1.988000035285949707e+00,-1.140000000596046448e-01,1.927999973297119141e+00,1.065353216000000000e+09
2.160000085830688477e+00,-6.899999827146530151e-02,1.919000029563903809e+00,1.065353216000000000e+09
1.659999966621398926e+00,-1.519999951124191284e-01,1.944000005722045898e+00,1.065353216000000000e+09
1.817000031471252441e+00,-1.099999994039535522e-01,1.922000050544738770e+00,1.065353216000000000e+09
1.986999988555908203e+00,-6.899999827146530151e-02,1.924000024795532227e+00,1.065353216000000000e+09
2.157999992370605469e+00,-1.799999922513961792e-02,1.914999961853027344e+00,1.065353216000000000e+09
1.659999966621398926e+00,-1.169999986886978149e-01,1.937999963760375977e+00,1.065353216000000000e+09
1.827999949455261230e+00,-7.000000029802322388e-02,1.929999947547912598e+00,1.065353216000000000e+09
1.985999941825866699e+00,-2.400000020861625671e-02,1.921000003814697266e+00,1.065353216000000000e+09
2.161999940872192383e+00,3.200000151991844177e-02,1.919000029563903809e+00,1.065353216000000000e+09
1.656999945640563965e+00,-8.200000226497650146e-02,1.929000020027160645e+00,1.065353216000000000e+09
1.825999975204467773e+00,-2.999999932944774628e-02,1.924999952316284180e+00,1.065353216000000000e+09
1.980000019073486328e+00,1.999999955296516418e-02,1.914000034332275391e+00,1.065353216000000000e+09
2.158999919891357422e+00,8.200000226497650146e-02,1.917000055313110352e+00,1.065353216000000000e+09
1.659000039100646973e+00,-4.800000041723251343e-02,1.927999973297119141e+00,1.065353216000000000e+09
1.822999954223632812e+00,8.999999612569808960e-03,1.919999957084655762e+00,1.065353216000000000e+09
1.985999941825866699e+00,6.499999761581420898e-02,1.919999957084655762e+00,1.065353216000000000e+09
2.155999898910522461e+00,1.330000013113021851e-01,1.916000008583068848e+00,1.065353216000000000e+09
1.666000008583068848e+00,-1.300000026822090149e-02,1.932999968528747559e+00,1.065353216000000000e+09
1.825999975204467773e+00,4.800000041723251343e-02,1.922000050544738770e+00,1.065353216000000000e+09
1.986999988555908203e+00,1.099999994039535522e-01,1.921000003814697266e+00,1.065353216000000000e+09
2.147000074386596680e+00,1.819999963045120239e-01,1.911000013351440430e+00,1.065353216000000000e+09
1.657999992370605469e+00,2.099999971687793732e-02,1.922000050544738770e+00,1.065353216000000000e+09
1.824000000953674316e+00,8.799999952316284180e-02,1.921000003814697266e+00,1.065353216000000000e+09
1.975000023841857910e+00,1.539999991655349731e-01,1.911999940872192383e+00,1.065353216000000000e+09
2.142999887466430664e+00,2.319999933242797852e-01,1.911999940872192383e+00,1.065353216000000000e+09
1.671000003814697266e+00,5.600000172853469849e-02,1.934000015258789062e+00,1.065353216000000000e+09
1.820000052452087402e+00,1.280000060796737671e-01,1.917000055313110352e+00,1.065353216000000000e+09
1.973000049591064453e+00,1.990000009536743164e-01,1.911999940872192383e+00,1.065353216000000000e+09
2.134000062942504883e+00,2.820000052452087402e-01,1.909000039100646973e+00,1.065353216000000000e+09
1.659999966621398926e+00,9.099999815225601196e-02,1.921000003814697266e+00,1.065353216000000000e+09
1.817999958992004395e+00,1.679999977350234985e-01,1.917000055313110352e+00,1.065353216000000000e+09
1.965999960899353027e+00,2.430000007152557373e-01,1.909000039100646973e+00,1.065353216000000000e+09
2.121000051498413086e+00,3.310000002384185791e-01,1.904999971389770508e+00,1.065353216000000000e+09
1.671000003814697266e+00,1.270000040531158447e-01,1.932999968528747559e+00,1.065353216000000000e+09
1.817999958992004395e+00,2.080000042915344238e-01,1.919000029563903809e+00,1.065353216000000000e+09
1.955000042915344238e+00,2.870000004768371582e-01,1.902999997138977051e+00,1.065353216000000000e+09
2.117000102996826172e+00,3.810000121593475342e-01,1.907999992370605469e+00,1.065353216000000000e+09
1.667999982833862305e+00,1.620000004768371582e-01,1.929000020027160645e+00,1.065353216000000000e+09
1.807000041007995605e+00,2.469999939203262329e-01,1.909999966621398926e+00,1.065353216000000000e+09
1.949000000953674316e+00,3.319999873638153076e-01,1.904000043869018555e+00,1.065353216000000000e+09
2.105000019073486328e+00,4.300000071525573730e-01,1.906000018119812012e+00,1.065353216000000000e+09
1.656000018119812012e+00,1.959999948740005493e-01,1.916000008583068848e+00,1.065353216000000000e+09
1.809999942779541016e+00,2.879999876022338867e-01,1.917999982833862305e+00,1.065353216000000000e+09
1.937000036239624023e+00,3.750000000000000000e-01,1.899000048637390137e+00,1.065353216000000000e+09
2.089999914169311523e+00,4.769999980926513672e-01,1.902999997138977051e+00,1.065353216000000000e+09
1.659999966621398926e+00,2.319999933242797852e-01,1.922000050544738770e+00,1.065353216000000000e+09
1.800999999046325684e+00,3.269999921321868896e-01,1.912999987602233887e+00,1.065353216000000000e+09
1.932999968528747559e+00,4.189999997615814209e-01,1.902999997138977051e+00,1.065353216000000000e+09
2.078000068664550781e+00,5.260000228881835938e-01,1.904000043869018555e+00,1.065353216000000000e+09
1.656999945640563965e+00,2.680000066757202148e-01,1.922000050544738770e+00,1.065353216000000000e+09
1.787999987602233887e+00,3.650000095367431641e-01,1.906000018119812012e+00,1.065353216000000000e+09
1.919000029563903809e+00,4.620000123977661133e-01,1.898000001907348633e+00,1.065353216000000000e+09
2.065000057220458984e+00,5.730000138282775879e-01,1.904000043869018555e+00,1.065353216000000000e+09
1.648000001907348633e+00,3.019999861717224121e-01,1.914999961853027344e+00,1.065353216000000000e+09
1.779999971389770508e+00,4.040000140666961670e-01,1.904000043869018555e+00,1.065353216000000000e+09
1.904000043869018555e+00,5.040000081062316895e-01,1.894000053405761719e+00,1.065353216000000000e+09
2.039999961853027344e+00,6.179999709129333496e-01,1.894999980926513672e+00,1.065353216000000000e+09
1.646000027656555176e+00,3.379999995231628418e-01,1.916000008583068848e+00,1.065353216000000000e+09
1.779000043869018555e+00,4.460000097751617432e-01,1.911000013351440430e+00,1.065353216000000000e+09
1.893000006675720215e+00,5.469999909400939941e-01,1.894000053405761719e+00,1.065353216000000000e+09
2.013999938964843750e+00,6.610000133514404297e-01,1.886000037193298340e+00,1.065353216000000000e+09
1.644000053405761719e+00,3.740000128746032715e-01,1.919999957084655762e+00,1.065353216000000000e+09
1.766000032424926758e+00,4.839999973773956299e-01,1.904999971389770508e+00,1.065353216000000000e+09
1.879999995231628418e+00,5.899999737739562988e-01,1.894000053405761719e+00,1.065353216000000000e+09
1.995000004768371582e+00,7.070000171661376953e-01,1.883999943733215332e+00,1.065353216000000000e+09
1.636000037193298340e+00,4.090000092983245850e-01,1.916000008583068848e+00,1.065353216000000000e+09
1.748999953269958496e+00,5.199999809265136719e-01,1.896999955177307129e+00,1.065353216000000000e+09
1.860999941825866699e+00,6.299999952316284180e-01,1.888000011444091797e+00,1.065353216000000000e+09
1.975999951362609863e+00,7.519999742507934570e-01,1.883000016212463379e+00,1.065353216000000000e+09
1.628000020980834961e+00,4.440000057220458984e-01,1.911999940872192383e+00,1.065353216000000000e+09
1.741000056266784668e+00,5.600000023841857910e-01,1.899999976158142090e+00,1.065353216000000000e+09
1.847000002861022949e+00,6.719999909400939941e-01,1.888000011444091797e+00,1.065353216000000000e+09
1.957000017166137695e+00,7.969999909400939941e-01,1.883999943733215332e+00,1.065353216000000000e+09
1.621999979019165039e+00,4.799999892711639404e-01,1.912999987602233887e+00,1.065353216000000000e+09
1.728999972343444824e+00,5.979999899864196777e-01,1.898000001907348633e+00,1.065353216000000000e+09
1.832000017166137695e+00,7.139999866485595703e-01,1.888000011444091797e+00,1.065353216000000000e+09
1.934999942779541016e+00,8.410000205039978027e-01,1.881999969482421875e+00,1.065353216000000000e+09
1.613999962806701660e+00,5.159999728202819824e-01,1.911999940872192383e+00,1.065353216000000000e+09
1.720000028610229492e+00,6.380000114440917969e-01,1.899999976158142090e+00,1.065353216000000000e+09
1.815999984741210938e+00,7.549999952316284180e-01,1.888000011444091797e+00,1.065353216000000000e+09
1.911000013351440430e+00,8.830000162124633789e-01,1.879999995231628418e+00,1.065353216000000000e+09
1.605999946594238281e+00,5.509999990463256836e-01,1.911999940872192383e+00,1.065353216000000000e+09
1.705000042915344238e+00,6.750000119209289551e-01,1.898000001907348633e+00,1.065353216000000000e+09
1.794000029563903809e+00,7.940000295639038086e-01,1.883999943733215332e+00,1.065353216000000000e+09
1.889999985694885254e+00,9.269999861717224121e-01,1.881000041961669922e+00,1.065353216000000000e+09
1.593999981880187988e+00,5.860000252723693848e-01,1.906999945640563965e+00,1.065353216000000000e+09
1.685999989509582520e+00,7.110000252723693848e-01,1.891999959945678711e+00,1.065353216000000000e+09
1.779000043869018555e+00,8.360000252723693848e-01,1.886999964714050293e+00,1.065353216000000000e+09
1.866000056266784668e+00,9.689999818801879883e-01,1.881000041961669922e+00,1.065353216000000000e+09
1.582000017166137695e+00,6.200000047683715820e-01,1.902999997138977051e+00,1.065353216000000000e+09
1.672999978065490723e+00,7.490000128746032715e-01,1.893000006675720215e+00,1.065353216000000000e+09
1.756000041961669922e+00,8.740000128746032715e-01,1.883000016212463379e+00,1.065353216000000000e+09
1.832999944686889648e+00,1.006000041961669922e+00,1.873000025749206543e+00,1.065353216000000000e+09
1.572999954223632812e+00,6.560000181198120117e-01,1.904999971389770508e+00,1.065353216000000000e+09
1.656999945640563965e+00,7.860000133514404297e-01,1.891999959945678711e+00,1.065353216000000000e+09
1.735999941825866699e+00,9.129999876022338867e-01,1.883000016212463379e+00,1.065353216000000000e+09
1.807000041007995605e+00,1.047000050544738770e+00,1.873000025749206543e+00,1.065353216000000000e+09
1.559000015258789062e+00,6.899999976158142090e-01,1.899999976158142090e+00,1.065353216000000000e+09
1.636000037193298340e+00,8.209999799728393555e-01,1.886000037193298340e+00,1.065353216000000000e+09
1.712000012397766113e+00,9.499999880790710449e-01,1.878999948501586914e+00,1.065353216000000000e+09
1.781000018119812012e+00,1.087000012397766113e+00,1.873000025749206543e+00,1.065353216000000000e+09
1.547999978065490723e+00,7.260000109672546387e-01,1.901000022888183594e+00,1.065353216000000000e+09
1.620000004768371582e+00,8.579999804496765137e-01,1.886000037193298340e+00,1.065353216000000000e+09
1.689000010490417480e+00,9.879999756813049316e-01,1.878000020980834961e+00,1.065353216000000000e+09
1.751999974250793457e+00,1.125000000000000000e+00,1.871999979019165039e+00,1.065353216000000000e+09
1.536000013351440430e+00,7.609999775886535645e-01,1.901000022888183594e+00,1.065353216000000000e+09
1.601999998092651367e+00,8.939999938011169434e-01,1.884999990463256836e+00,1.065353216000000000e+09
1.664000034332275391e+00,1.024000048637390137e+00,1.873999953269958496e+00,1.065353216000000000e+09
1.723000049591064453e+00,1.162999987602233887e+00,1.871000051498413086e+00,1.065353216000000000e+09
1.521999955177307129e+00,7.950000166893005371e-01,1.899000048637390137e+00,1.065353216000000000e+09
1.583999991416931152e+00,9.309999942779541016e-01,1.886000037193298340e+00,1.065353216000000000e+09
1.644000053405761719e+00,1.064000010490417480e+00,1.878999948501586914e+00,1.065353216000000000e+09
1.695000052452087402e+00,1.200999975204467773e+00,1.871999979019165039e+00,1.065353216000000000e+09
1.501999974250793457e+00,8.270000219345092773e-01,1.891000032424926758e+00,1.065353216000000000e+09
1.565000057220458984e+00,9.670000076293945312e-01,1.886000037193298340e+00,1.065353216000000000e+09
1.616000056266784668e+00,1.098000049591064453e+00,1.875000000000000000e+00,1.065353216000000000e+09
1.662999987602233887e+00,1.236999988555908203e+00,1.871000051498413086e+00,1.065353216000000000e+09
1.491000056266784668e+00,8.640000224113464355e-01,1.894999980926513672e+00,1.065353216000000000e+09
1.546000003814697266e+00,1.003000020980834961e+00,1.886999964714050293e+00,1.065353216000000000e+09
1.593000054359436035e+00,1.134999990463256836e+00,1.876999974250793457e+00,1.065353216000000000e+09
1.631000041961669922e+00,1.271999955177307129e+00,1.868999958038330078e+00,1.065353216000000000e+09
1.475999951362609863e+00,8.980000019073486328e-01,1.894999980926513672e+00,1.065353216000000000e+09
1.524000048637390137e+00,1.036999940872192383e+00,1.884999990463256836e+00,1.065353216000000000e+09
1.564000010490417480e+00,1.167999982833862305e+00,1.873000025749206543e+00,1.065353216000000000e+09
1.597000002861022949e+00,1.304999947547912598e+00,1.866000056266784668e+00,1.065353216000000000e+09
1.450999975204467773e+00,9.269999861717224121e-01,1.883999943733215332e+00,1.065353216000000000e+09
1.503000020980834961e+00,1.072000026702880859e+00,1.886000037193298340e+00,1.065353216000000000e+09
1.536000013351440430e+00,1.202000021934509277e+00,1.871999979019165039e+00,1.065353216000000000e+09
1.564000010490417480e+00,1.338999986648559570e+00,1.866000056266784668e+00,1.065353216000000000e+09
1.444000005722045898e+00,9.679999947547912598e-01,1.896000027656555176e+00,1.065353216000000000e+09
1.480000019073486328e+00,1.105000019073486328e+00,1.883999943733215332e+00,1.065353216000000000e+09
1.506999969482421875e+00,1.235000014305114746e+00,1.871000051498413086e+00,1.065353216000000000e+09
1.531999945640563965e+00,1.371999979019165039e+00,1.866999983787536621e+00,1.065353216000000000e+09
1.422999978065490723e+00,1.000000000000000000e+00,1.891000032424926758e+00,1.065353216000000000e+09
1.453999996185302734e+00,1.136999964714050293e+00,1.879999995231628418e+00,1.065353216000000000e+09
1.478000044822692871e+00,1.266999959945678711e+00,1.868999958038330078e+00,1.065353216000000000e+09
1.496999979019165039e+00,1.402999997138977051e+00,1.866000056266784668e+00,1.065353216000000000e+09
1.399999976158142090e+00,1.029999971389770508e+00,1.883999943733215332e+00,1.065353216000000000e+09
1.432999968528747559e+00,1.172999978065490723e+00,1.883999943733215332e+00,1.065353216000000000e+09
1.450999975204467773e+00,1.300999999046325684e+00,1.871999979019165039e+00,1.065353216000000000e+09
1.457000017166137695e+00,1.429999947547912598e+00,1.858999967575073242e+00,1.065353216000000000e+09
1.378999948501586914e+00,1.062000036239624023e+00,1.881000041961669922e+00,1.065353216000000000e+09
1.404999971389770508e+00,1.202999949455261230e+00,1.879999995231628418e+00,1.065353216000000000e+09
1.417000055313110352e+00,1.328999996185302734e+00,1.866000056266784668e+00,1.065353216000000000e+09
1.425999999046325684e+00,1.463999986648559570e+00,1.865000009536743164e+00,1.065353216000000000e+09
1.358000040054321289e+00,1.095000028610229492e+00,1.879999995231628418e+00,1.065353216000000000e+09
1.379999995231628418e+00,1.235999941825866699e+00,1.879999995231628418e+00,1.065353216000000000e+09
1.384999990463256836e+00,1.358999967575073242e+00,1.863999962806701660e+00,1.065353216000000000e+09
1.391999959945678711e+00,1.495000004768371582e+00,1.866999983787536621e+00,1.065353216000000000e+09
1.338999986648559570e+00,1.128000020980834961e+00,1.881000041961669922e+00,1.065353216000000000e+09
1.350999951362609863e+00,1.264999985694885254e+00,1.876000046730041504e+00,1.065353216000000000e+09
1.355000019073486328e+00,1.389999985694885254e+00,1.866000056266784668e+00,1.065353216000000000e+09
1.353000044822692871e+00,1.521000027656555176e+00,1.863999962806701660e+00,1.065353216000000000e+09
1.317000031471252441e+00,1.161000013351440430e+00,1.881000041961669922e+00,1.065353216000000000e+09
1.324000000953674316e+00,1.294999957084655762e+00,1.873999953269958496e+00,1.065353216000000000e+09
1.322000026702880859e+00,1.417000055313110352e+00,1.863000035285949707e+00,1.065353216000000000e+09
1.314000010490417480e+00,1.546000003814697266e+00,1.861999988555908203e+00,1.065353216000000000e+09
1.297999978065490723e+00,1.195999979972839355e+00,1.884999990463256836e+00,1.065353216000000000e+09
1.294999957084655762e+00,1.324000000953674316e+00,1.873000025749206543e+00,1.065353216000000000e+09
1.287999987602233887e+00,1.445999979972839355e+00,1.861999988555908203e+00,1.065353216000000000e+09
1.277999997138977051e+00,1.574000000953674316e+00,1.863999962806701660e+00,1.065353216000000000e+09
1.271999955177307129e+00,1.225000023841857910e+00,1.878999948501586914e+00,1.065353216000000000e+09
1.266000032424926758e+00,1.353000044822692871e+00,1.870000004768371582e+00,1.065353216000000000e+09
1.256000041961669922e+00,1.473999977111816406e+00,1.861999988555908203e+00,1.065353216000000000e+09
1.238999962806701660e+00,1.597000002861022949e+00,1.861999988555908203e+00,1.065353216000000000e+09
1.251000046730041504e+00,1.258999943733215332e+00,1.883000016212463379e+00,1.065353216000000000e+09
1.238000035285949707e+00,1.383999943733215332e+00,1.871999979019165039e+00,1.065353216000000000e+09
1.222000002861022949e+00,1.501000046730041504e+00,1.861999988555908203e+00,1.065353216000000000e+09
1.200000047683715820e+00,1.621999979019165039e+00,1.861999988555908203e+00,1.065353216000000000e+09
1.225000023841857910e+00,1.289000034332275391e+00,1.881000041961669922e+00,1.065353216000000000e+09
1.207999944686889648e+00,1.411999940872192383e+00,1.871000051498413086e+00,1.065353216000000000e+09
1.190000057220458984e+00,1.529999971389770508e+00,1.865000009536743164e+00,1.065353216000000000e+09
1.161999940872192383e+00,1.644999980926513672e+00,1.861999988555908203e+00,1.065353216000000000e+09
1.197000026702880859e+00,1.317999958992004395e+00,1.876999974250793457e+00,1.065353216000000000e+09
1.177999973297119141e+00,1.440999984741210938e+00,1.871000051498413086e+00,1.065353216000000000e+09
1.151999950408935547e+00,1.552000045776367188e+00,1.860999941825866699e+00,1.065353216000000000e+09
1.121000051498413086e+00,1.666000008583068848e+00,1.860999941825866699e+00,1.065353216000000000e+09
1.172000050544738770e+00,1.348000049591064453e+00,1.876999974250793457e+00,1.065353216000000000e+09
1.144000053405761719e+00,1.463999986648559570e+00,1.866000056266784668e+00,1.065353216000000000e+09
1.116999983787536621e+00,1.575999975204467773e+00,1.860000014305114746e+00,1.065353216000000000e+09
1.080999970436096191e+00,1.685999989509582520e+00,1.860000014305114746e+00,1.065353216000000000e+09
1.144000053405761719e+00,1.378000020980834961e+00,1.876000046730041504e+00,1.065353216000000000e+09
1.113000035285949707e+00,1.491999983787536621e+00,1.866999983787536621e+00,1.065353216000000000e+09
1.082000017166137695e+00,1.600999951362609863e+00,1.860999941825866699e+00,1.065353216000000000e+09
1.044000029563903809e+00,1.710999965667724609e+00,1.865000009536743164e+00,1.065353216000000000e+09
1.116000056266784668e+00,1.406999945640563965e+00,1.875000000000000000e+00,1.065353216000000000e+09
1.085000038146972656e+00,1.523000001907348633e+00,1.871999979019165039e+00,1.065353216000000000e+09
1.044999957084655762e+00,1.623999953269958496e+00,1.860999941825866699e+00,1.065353216000000000e+09
9.990000128746032715e-01,1.723999977111816406e+00,1.858000040054321289e+00,1.065353216000000000e+09
1.090000033378601074e+00,1.439000010490417480e+00,1.878999948501586914e+00,1.065353216000000000e+09
1.052000045776367188e+00,1.549000024795532227e+00,1.873000025749206543e+00,1.065353216000000000e+09
1.008999943733215332e+00,1.646999955177307129e+00,1.861999988555908203e+00,1.065353216000000000e+09
9.589999914169311523e-01,1.743000030517578125e+00,1.860000014305114746e+00,1.065353216000000000e+09
1.059000015258789062e+00,1.463999986648559570e+00,1.873999953269958496e+00,1.065353216000000000e+09
1.016999959945678711e+00,1.570999979972839355e+00,1.868999958038330078e+00,1.065353216000000000e+09
9.720000028610229492e-01,1.667000055313110352e+00,1.860999941825866699e+00,1.065353216000000000e+09
9.200000166893005371e-01,1.763000011444091797e+00,1.863000035285949707e+00,1.065353216000000000e+09
1.026999950408935547e+00,1.490000009536743164e+00,1.871000051498413086e+00,1.065353216000000000e+09
9.829999804496765137e-01,1.595999956130981445e+00,1.868999958038330078e+00,1.065353216000000000e+09
9.340000152587890625e-01,1.689000010490417480e+00,1.861999988555908203e+00,1.065353216000000000e+09
8.769999742507934570e-01,1.774999976158142090e+00,1.858999967575073242e+00,1.065353216000000000e+09
9.969999790191650391e-01,1.518000006675720215e+00,1.871000051498413086e+00,1.065353216000000000e+09
9.480000138282775879e-01,1.618999958038330078e+00,1.868999958038330078e+00,1.065353216000000000e+09
8.939999938011169434e-01,1.703999996185302734e+00,1.858000040054321289e+00,1.065353216000000000e+09
8.349999785423278809e-01,1.789000034332275391e+00,1.858000040054321289e+00,1.065353216000000000e+09
9.660000205039978027e-01,1.546000003814697266e+00,1.871999979019165039e+00,1.065353216000000000e+09
9.110000133514404297e-01,1.638000011444091797e+00,1.865000009536743164e+00,1.065353216000000000e+09
8.579999804496765137e-01,1.726999998092651367e+00,1.861999988555908203e+00,1.065353216000000000e+09
7.940000295639038086e-01,1.804000020027160645e+00,1.860000014305114746e+00,1.065353216000000000e+09
9.340000152587890625e-01,1.572000026702880859e+00,1.871999979019165039e+00,1.065353216000000000e+09
8.759999871253967285e-01,1.661000013351440430e+00,1.866000056266784668e+00,1.065353216000000000e+09
8.180000185966491699e-01,1.743000030517578125e+00,1.860999941825866699e+00,1.065353216000000000e+09
7.500000000000000000e-01,1.812000036239624023e+00,1.855000019073486328e+00,1.065353216000000000e+09
8.999999761581420898e-01,1.595999956130981445e+00,1.868999958038330078e+00,1.065353216000000000e+09
8.399999737739562988e-01,1.682999968528747559e+00,1.866999983787536621e+00,1.065353216000000000e+09
7.779999971389770508e-01,1.758999943733215332e+00,1.858999967575073242e+00,1.065353216000000000e+09
7.099999785423278809e-01,1.830000042915344238e+00,1.860999941825866699e+00,1.065353216000000000e+09
8.640000224113464355e-01,1.616999983787536621e+00,1.863999962806701660e+00,1.065353216000000000e+09
8.029999732971191406e-01,1.702000021934509277e+00,1.865000009536743164e+00,1.065353216000000000e+09
7.390000224113464355e-01,1.774000048637390137e+00,1.858999967575073242e+00,1.065353216000000000e+09
6.710000038146972656e-01,1.847000002861022949e+00,1.866999983787536621e+00,1.065353216000000000e+09
8.299999833106994629e-01,1.639999985694885254e+00,1.863000035285949707e+00,1.065353216000000000e+09
7.659999728202819824e-01,1.723000049591064453e+00,1.866000056266784668e+00,1.065353216000000000e+09
6.999999880790710449e-01,1.791000008583068848e+00,1.860999941825866699e+00,1.065353216000000000e+09
6.259999871253967285e-01,1.850000023841857910e+00,1.860000014305114746e+00,1.065353216000000000e+09
7.990000247955322266e-01,1.672999978065490723e+00,1.873000025749206543e+00,1.065353216000000000e+09
7.260000109672546387e-01,1.735999941825866699e+00,1.860000014305114746e+00,1.065353216000000000e+09
6.600000262260437012e-01,1.805999994277954102e+00,1.861999988555908203e+00,1.065353216000000000e+09
5.849999785423278809e-01,1.863000035285949707e+00,1.865000009536743164e+00,1.065353216000000000e+09
7.620000243186950684e-01,1.692999958992004395e+00,1.868999958038330078e+00,1.065353216000000000e+09
6.890000104904174805e-01,1.756999969482421875e+00,1.861999988555908203e+00,1.065353216000000000e+09
6.169999837875366211e-01,1.810999989509582520e+00,1.853000044822692871e+00,1.065353216000000000e+09
5.410000085830688477e-01,1.863999962806701660e+00,1.858000040054321289e+00,1.065353216000000000e+09
7.200000286102294922e-01,1.702999949455261230e+00,1.855000019073486328e+00,1.065353216000000000e+09
6.510000228881835938e-01,1.776000022888183594e+00,1.863999962806701660e+00,1.065353216000000000e+09
5.789999961853027344e-01,1.833999991416931152e+00,1.863999962806701660e+00,1.065353216000000000e+09
4.990000128746032715e-01,1.870000004768371582e+00,1.856999993324279785e+00,1.065353216000000000e+09
6.869999766349792480e-01,1.733000040054321289e+00,1.863999962806701660e+00,1.065353216000000000e+09
6.090000271797180176e-01,1.784000039100646973e+00,1.855000019073486328e+00,1.065353216000000000e+09
5.360000133514404297e-01,1.837000012397766113e+00,1.855000019073486328e+00,1.065353216000000000e+09
4.580000042915344238e-01,1.881999969482421875e+00,1.863999962806701660e+00,1.065353216000000000e+09
6.499999761581420898e-01,1.754999995231628418e+00,1.865000009536743164e+00,1.065353216000000000e+09
5.730000138282775879e-01,1.809000015258789062e+00,1.865000009536743164e+00,1.065353216000000000e+09
4.950000047683715820e-01,1.848000049591064453e+00,1.855999946594238281e+00,1.065353216000000000e+09
4.149999916553497314e-01,1.883000016212463379e+00,1.860000014305114746e+00,1.065353216000000000e+09
6.110000014305114746e-01,1.771999955177307129e+00,1.860999941825866699e+00,1.065353216000000000e+09
5.320000052452087402e-01,1.819000005722045898e+00,1.860999941825866699e+00,1.065353216000000000e+09
4.550000131130218506e-01,1.860000014305114746e+00,1.858999967575073242e+00,1.065353216000000000e+09
3.729999959468841553e-01,1.886999964714050293e+00,1.860000014305114746e+00,1.065353216000000000e+09
5.699999928474426270e-01,1.786000013351440430e+00,1.855999946594238281e+00,1.065353216000000000e+09
4.920000135898590088e-01,1.833999991416931152e+00,1.861999988555908203e+00,1.065353216000000000e+09
4.129999876022338867e-01,1.866000056266784668e+00,1.856999993324279785e+00,1.065353216000000000e+09
3.330000042915344238e-01,1.896000027656555176e+00,1.866000056266784668e+00,1.065353216000000000e+09
5.329999923706054688e-01,1.809999942779541016e+00,1.860999941825866699e+00,1.065353216000000000e+09
4.510000050067901611e-01,1.845000028610229492e+00,1.860000014305114746e+00,1.065353216000000000e+09
3.709999918937683105e-01,1.871999979019165039e+00,1.855000019073486328e+00,1.065353216000000000e+09
2.899999916553497314e-01,1.894999980926513672e+00,1.863000035285949707e+00,1.065353216000000000e+09
4.920000135898590088e-01,1.827000021934509277e+00,1.860000014305114746e+00,1.065353216000000000e+09
4.099999964237213135e-01,1.856999993324279785e+00,1.858999967575073242e+00,1.065353216000000000e+09
3.300000131130218506e-01,1.879999995231628418e+00,1.855999946594238281e+00,1.065353216000000000e+09
2.489999979734420776e-01,1.898000001907348633e+00,1.866000056266784668e+00,1.065353216000000000e+09
4.530000090599060059e-01,1.847000002861022949e+00,1.863000035285949707e+00,1.065353216000000000e+09
3.689999878406524658e-01,1.870000004768371582e+00,1.860999941825866699e+00,1.065353216000000000e+09
2.879999876022338867e-01,1.883999943733215332e+00,1.855000019073486328e+00,1.065353216000000000e+09
2.060000002384185791e-01,1.888000011444091797e+00,1.855000019073486328e+00,1.065353216000000000e+09
4.110000133514404297e-01,1.858999967575073242e+00,1.860000014305114746e+00,1.065353216000000000e+09
3.269999921321868896e-01,1.876999974250793457e+00,1.858000040054321289e+00,1.065353216000000000e+09
2.469999939203262329e-01,1.894999980926513672e+00,1.860999941825866699e+00,1.065353216000000000e+09
1.650000065565109253e-01,1.891999959945678711e+00,1.860000014305114746e+00,1.065353216000000000e+09
3.680000007152557373e-01,1.870000004768371582e+00,1.855000019073486328e+00,1.065353216000000000e+09
2.860000133514404297e-01,1.889999985694885254e+00,1.861999988555908203e+00,1.065353216000000000e+09
2.049999982118606567e-01,1.893000006675720215e+00,1.855000019073486328e+00,1.065353216000000000e+09
1.239999979734420776e-01,1.889000058174133301e+00,1.858999967575073242e+00,1.065353216000000000e+09
3.280000090599060059e-01,1.891000032424926758e+00,1.861999988555908203e+00,1.065353216000000000e+09
2.430000007152557373e-01,1.891000032424926758e+00,1.853999972343444824e+00,1.065353216000000000e+09
1.630000025033950806e-01,1.896000027656555176e+00,1.855999946594238281e+00,1.065353216000000000e+09
8.399999886751174927e-02,1.896999955177307129e+00,1.870000004768371582e+00,1.065353216000000000e+09
2.849999964237213135e-01,1.904000043869018555e+00,1.861999988555908203e+00,1.065353216000000000e+09
2.010000050067901611e-01,1.899000048637390137e+00,1.855000019073486328e+00,1.065353216000000000e+09
1.209999993443489075e-01,1.899999976158142090e+00,1.858000040054321289e+00,1.065353216000000000e+09
4.199999943375587463e-02,1.886000037193298340e+00,1.861999988555908203e+00,1.065353216000000000e+09
2.409999966621398926e-01,1.907999992370605469e+00,1.853999972343444824e+00,1.065353216000000000e+09
1.580000072717666626e-01,1.906000018119812012e+00,1.855999946594238281e+00,1.065353216000000000e+09
7.999999821186065674e-02,1.904000043869018555e+00,1.860000014305114746e+00,1.065353216000000000e+09
2.000000094994902611e-03,1.881999969482421875e+00,1.861999988555908203e+00,1.065353216000000000e+09
1.979999989271163940e-01,1.922999978065490723e+00,1.856999993324279785e+00,1.065353216000000000e+09
1.150000020861625671e-01,1.911999940872192383e+00,1.855999946594238281e+00,1.065353216000000000e+09
3.799999877810478210e-02,1.904000043869018555e+00,1.858999967575073242e+00,1.065353216000000000e+09
-3.700000047683715820e-02,1.879999995231628418e+00,1.865000009536743164e+00,1.065353216000000000e+09
1.539999991655349731e-01,1.932999968528747559e+00,1.856999993324279785e+00,1.065353216000000000e+09
7.299999892711639404e-02,1.914999961853027344e+00,1.855000019073486328e+00,1.065353216000000000e+09
-3.000000026077032089e-03,1.902999997138977051e+00,1.858999967575073242e+00,1.065353216000000000e+09
-7.699999958276748657e-02,1.873999953269958496e+00,1.865000009536743164e+00,1.065353216000000000e+09
1.089999973773956299e-01,1.939000010490417480e+00,1.853000044822692871e+00,1.065353216000000000e+09
2.999999932944774628e-02,1.919999957084655762e+00,1.855999946594238281e+00,1.065353216000000000e+09
-4.399999976158142090e-02,1.901999950408935547e+00,1.860000014305114746e+00,1.065353216000000000e+09
-1.169999986886978149e-01,1.866000056266784668e+00,1.863999962806701660e+00,1.065353216000000000e+09
6.499999761581420898e-02,1.947999954223632812e+00,1.855000019073486328e+00,1.065353216000000000e+09
-1.300000026822090149e-02,1.919999957084655762e+00,1.853000044822692871e+00,1.065353216000000000e+09
-8.600000292062759399e-02,1.898000001907348633e+00,1.858999967575073242e+00,1.065353216000000000e+09
-1.560000032186508179e-01,1.860999941825866699e+00,1.866999983787536621e+00,1.065353216000000000e+09
1.899999938905239105e-02,1.952999949455261230e+00,1.853000044822692871e+00,1.065353216000000000e+09
-5.600000172853469849e-02,1.927999973297119141e+00,1.860000014305114746e+00,1.065353216000000000e+09
-1.270000040531158447e-01,1.896000027656555176e+00,1.860000014305114746e+00,1.065353216000000000e+09
-1.959999948740005493e-01,1.856999993324279785e+00,1.871999979019165039e+00,1.065353216000000000e+09
-2.500000037252902985e-02,1.963000059127807617e+00,1.856999993324279785e+00,1.065353216000000000e+09
-1.000000014901161194e-01,1.929999947547912598e+00,1.860000014305114746e+00,1.065353216000000000e+09
-1.689999997615814209e-01,1.889999985694885254e+00,1.858999967575073242e+00,1.065353216000000000e+09
-2.339999973773956299e-01,1.845999956130981445e+00,1.870000004768371582e+00,1.065353216000000000e+09
-7.100000232458114624e-02,1.968999981880187988e+00,1.856999993324279785e+00,1.065353216000000000e+09
-1.430000066757202148e-01,1.927000045776367188e+00,1.858999967575073242e+00,1.065353216000000000e+09
-2.099999934434890747e-01,1.886999964714050293e+00,1.861999988555908203e+00,1.065353216000000000e+09
-2.720000147819519043e-01,1.833999991416931152e+00,1.866999983787536621e+00,1.065353216000000000e+09
-1.169999986886978149e-01,1.973999977111816406e+00,1.858000040054321289e+00,1.065353216000000000e+09
-1.860000044107437134e-01,1.925999999046325684e+00,1.858999967575073242e+00,1.065353216000000000e+09
-2.509999871253967285e-01,1.879999995231628418e+00,1.860000014305114746e+00,1.065353216000000000e+09
-3.109999895095825195e-01,1.825000047683715820e+00,1.870000004768371582e+00,1.065353216000000000e+09
-1.630000025033950806e-01,1.970999956130981445e+00,1.853000044822692871e+00,1.065353216000000000e+09
-2.310000061988830566e-01,1.927999973297119141e+00,1.863000035285949707e+00,1.065353216000000000e+09
-2.919999957084655762e-01,1.876999974250793457e+00,1.863999962806701660e+00,1.065353216000000000e+09
-3.490000069141387939e-01,1.817999958992004395e+00,1.873999953269958496e+00,1.065353216000000000e+09
-2.090000063180923462e-01,1.975000023841857910e+00,1.855000019073486328e+00,1.065353216000000000e+09
-2.730000019073486328e-01,1.919000029563903809e+00,1.858000040054321289e+00,1.065353216000000000e+09
-3.330000042915344238e-01,1.868000030517578125e+00,1.863000035285949707e+00,1.065353216000000000e+09
-3.869999945163726807e-01,1.807000041007995605e+00,1.876000046730041504e+00,1.065353216000000000e+09
-2.560000121593475342e-01,1.975999951362609863e+00,1.855000019073486328e+00,1.065353216000000000e+09
-3.170000016689300537e-01,1.919000029563903809e+00,1.860999941825866699e+00,1.065353216000000000e+09
-3.729999959468841553e-01,1.858000040054321289e+00,1.861999988555908203e+00,1.065353216000000000e+09
-4.219999909400939941e-01,1.789000034332275391e+00,1.870000004768371582e+00,1.065353216000000000e+09
-3.019999861717224121e-01,1.972000002861022949e+00,1.851999998092651367e+00,1.065353216000000000e+09
-3.600000143051147461e-01,1.909999966621398926e+00,1.858000040054321289e+00,1.065353216000000000e+09
-4.140000045299530029e-01,1.848000049591064453e+00,1.861999988555908203e+00,1.065353216000000000e+09
-4.580000042915344238e-01,1.771999955177307129e+00,1.866999983787536621e+00,1.065353216000000000e+09
-3.499999940395355225e-01,1.973000049591064453e+00,1.855000019073486328e+00,1.065353216000000000e+09
-4.040000140666961670e-01,1.902999997138977051e+00,1.856999993324279785e+00,1.065353216000000000e+09
-4.530000090599060059e-01,1.837000012397766113e+00,1.860999941825866699e+00,1.065353216000000000e+09
-4.950000047683715820e-01,1.761999964714050293e+00,1.871999979019165039e+00,1.065353216000000000e+09
-3.970000147819519043e-01,1.970000028610229492e+00,1.855000019073486328e+00,1.065353216000000000e+09
-4.469999969005584717e-01,1.896000027656555176e+00,1.856999993324279785e+00,1.065353216000000000e+09
-4.930000007152557373e-01,1.825999975204467773e+00,1.861999988555908203e+00,1.065353216000000000e+09
-5.310000181198120117e-01,1.746999979019165039e+00,1.871999979019165039e+00,1.065353216000000000e+09
-4.429999887943267822e-01,1.963999986648559570e+00,1.853000044822692871e+00,1.065353216000000000e+09
-4.900000095367431641e-01,1.886999964714050293e+00,1.858000040054321289e+00,1.065353216000000000e+09
-5.329999923706054688e-01,1.815000057220458984e+00,1.863000035285949707e+00,1.065353216000000000e+09
-5.659999847412109375e-01,1.730000019073486328e+00,1.870000004768371582e+00,1.065353216000000000e+09
-4.900000095367431641e-01,1.957999944686889648e+00,1.853000044822692871e+00,1.065353216000000000e+09
-5.339999794960021973e-01,1.879999995231628418e+00,1.858999967575073242e+00,1.065353216000000000e+09
-5.720000267028808594e-01,1.804000020027160645e+00,1.865000009536743164e+00,1.065353216000000000e+09
-6.010000109672546387e-01,1.718000054359436035e+00,1.875000000000000000e+00,1.065353216000000000e+09
-5.389999747276306152e-01,1.958999991416931152e+00,1.858999967575073242e+00,1.065353216000000000e+09
-5.759999752044677734e-01,1.866999983787536621e+00,1.856999993324279785e+00,1.065353216000000000e+09
-6.119999885559082031e-01,1.792000055313110352e+00,1.866999983787536621e+00,1.065353216000000000e+09
-6.340000033378601074e-01,1.697000026702880859e+00,1.871000051498413086e+00,1.065353216000000000e+09
-5.860000252723693848e-01,1.947999954223632812e+00,1.855999946594238281e+00,1.065353216000000000e+09
-6.190000176429748535e-01,1.858999967575073242e+00,1.860999941825866699e+00,1.065353216000000000e+09
-6.499999761581420898e-01,1.776999950408935547e+00,1.866000056266784668e+00,1.065353216000000000e+09
-6.700000166893005371e-01,1.684999942779541016e+00,1.876000046730041504e+00,1.065353216000000000e+09
-6.330000162124633789e-01,1.940999984741210938e+00,1.858000040054321289e+00,1.065353216000000000e+09
-6.629999876022338867e-01,1.848000049591064453e+00,1.861999988555908203e+00,1.065353216000000000e+09
-6.859999895095825195e-01,1.756999969482421875e+00,1.861999988555908203e+00,1.065353216000000000e+09
-7.030000090599060059e-01,1.666000008583068848e+00,1.875000000000000000e+00,1.065353216000000000e+09
-6.800000071525573730e-01,1.927999973297119141e+00,1.855999946594238281e+00,1.065353216000000000e+09
-7.039999961853027344e-01,1.832999944686889648e+00,1.860000014305114746e+00,1.065353216000000000e+09
-7.269999980926513672e-01,1.746999979019165039e+00,1.868999958038330078e+00,1.065353216000000000e+09
-7.379999756813049316e-01,1.651999950408935547e+00,1.879999995231628418e+00,1.065353216000000000e+09
-7.289999723434448242e-01,1.922999978065490723e+00,1.861999988555908203e+00,1.065353216000000000e+09
-7.469999790191650391e-01,1.820999979972839355e+00,1.861999988555908203e+00,1.065353216000000000e+09
-7.639999985694885254e-01,1.730000019073486328e+00,1.868999958038330078e+00,1.065353216000000000e+09
-7.710000276565551758e-01,1.633999943733215332e+00,1.881999969482421875e+00,1.065353216000000000e+09
-7.760000228881835938e-01,1.911000013351440430e+00,1.861999988555908203e+00,1.065353216000000000e+09
-7.889999747276306152e-01,1.807999968528747559e+00,1.865000009536743164e+00,1.065353216000000000e+09
-8.000000119209289551e-01,1.710999965667724609e+00,1.866999983787536621e+00,1.065353216000000000e+09
-8.019999861717224121e-01,1.611999988555908203e+00,1.879999995231628418e+00,1.065353216000000000e+09
-8.220000267028808594e-01,1.896000027656555176e+00,1.860999941825866699e+00,1.065353216000000000e+09
-8.289999961853027344e-01,1.786999940872192383e+00,1.860999941825866699e+00,1.065353216000000000e+09
-8.379999995231628418e-01,1.695000052452087402e+00,1.870000004768371582e+00,1.065353216000000000e+09
-8.330000042915344238e-01,1.590999960899353027e+00,1.878999948501586914e+00,1.065353216000000000e+09
-8.679999709129333496e-01,1.878999948501586914e+00,1.858000040054321289e+00,1.065353216000000000e+09
-8.709999918937683105e-01,1.771999955177307129e+00,1.863000035285949707e+00,1.065353216000000000e+09
-8.750000000000000000e-01,1.677000045776367188e+00,1.871999979019165039e+00,1.065353216000000000e+09
-8.650000095367431641e-01,1.572000026702880859e+00,1.881000041961669922e+00,1.065353216000000000e+09
-9.179999828338623047e-01,1.871999979019165039e+00,1.868000030517578125e+00,1.065353216000000000e+09
-9.129999876022338867e-01,1.753999948501586914e+00,1.863000035285949707e+00,1.065353216000000000e+09
-9.110000133514404297e-01,1.656999945640563965e+00,1.871999979019165039e+00,1.065353216000000000e+09
-8.980000019073486328e-01,1.554999947547912598e+00,1.886000037193298340e+00,1.065353216000000000e+09
-9.649999737739562988e-01,1.855999946594238281e+00,1.868999958038330078e+00,1.065353216000000000e+09
-9.539999961853027344e-01,1.738000035285949707e+00,1.866000056266784668e+00,1.065353216000000000e+09
-9.480000138282775879e-01,1.639000058174133301e+00,1.875000000000000000e+00,1.065353216000000000e+09
-9.250000119209289551e-01,1.527999997138977051e+00,1.879999995231628418e+00,1.065353216000000000e+09
-1.009999990463256836e+00,1.835999965667724609e+00,1.868000030517578125e+00,1.065353216000000000e+09
-9.990000128746032715e-01,1.725000023841857910e+00,1.873999953269958496e+00,1.065353216000000000e+09
-9.819999933242797852e-01,1.616000056266784668e+00,1.873000025749206543e+00,1.065353216000000000e+09
-9.549999833106994629e-01,1.506000041961669922e+00,1.881000041961669922e+00,1.065353216000000000e+09
-1.054999947547912598e+00,1.815999984741210938e+00,1.866999983787536621e+00,1.065353216000000000e+09
-1.036000013351440430e+00,1.700000047683715820e+00,1.871000051498413086e+00,1.065353216000000000e+09
-1.016000032424926758e+00,1.593000054359436035e+00,1.873000025749206543e+00,1.065353216000000000e+09
