x,y,z,intensity
3.000000026077032089e-03,-1.679999977350234985e-01,5.000000074505805969e-02,1.065353216000000000e+09
1.300000026822090149e-02,-9.700000286102294922e-02,2.500000037252902985e-02,1.065353216000000000e+09
0.000000000000000000e+00,0.000000000000000000e+00,0.000000000000000000e+00,1.065353216000000000e+09
0.000000000000000000e+00,0.000000000000000000e+00,0.000000000000000000e+00,1.065353216000000000e+09
0.000000000000000000e+00,0.000000000000000000e+00,0.000000000000000000e+00,1.065353216000000000e+09
0.000000000000000000e+00,0.000000000000000000e+00,0.000000000000000000e+00,1.065353216000000000e+09
1.600000075995922089e-02,-1.299999952316284180e-01,3.500000014901161194e-02,1.065353216000000000e+09
1.400000043213367462e-02,-1.550000011920928955e-01,4.399999976158142090e-02,1.065353216000000000e+09
9.999999776482582092e-03,-1.599999964237213135e-01,4.699999839067459106e-02,1.065353216000000000e+09
1.700000092387199402e-02,-9.499999880790710449e-02,2.500000037252902985e-02,1.065353216000000000e+09
0.000000000000000000e+00,0.000000000000000000e+00,0.000000000000000000e+00,1.065353216000000000e+09
0.000000000000000000e+00,0.000000000000000000e+00,0.000000000000000000e+00,1.065353216000000000e+09
0.000000000000000000e+00,0.000000000000000000e+00,0.000000000000000000e+00,1.065353216000000000e+09
1.207000017166137695e+00,-5.903999805450439453e+00,1.582000017166137695e+00,1.065353216000000000e+09
0.000000000000000000e+00,0.000000000000000000e+00,0.000000000000000000e+00,1.065353216000000000e+09
1.700000092387199402e-02,-1.220000013709068298e-01,3.500000014901161194e-02,1.065353216000000000e+09
1.700000092387199402e-02,-1.539999991655349731e-01,4.500000178813934326e-02,1.065353216000000000e+09
1.307999968528747559e+00,-5.723000049591064453e+00,1.549000024795532227e+00,1.065353216000000000e+09
0.000000000000000000e+00,0.000000000000000000e+00,0.000000000000000000e+00,1.065353216000000000e+09
0.000000000000000000e+00,0.000000000000000000e+00,0.000000000000000000e+00,1.065353216000000000e+09
0.000000000000000000e+00,0.000000000000000000e+00,0.000000000000000000e+00,1.065353216000000000e+09
1.396000027656555176e+00,-5.515999794006347656e+00,1.509999990463256836e+00,1.065353216000000000e+09
0.000000000000000000e+00,0.000000000000000000e+00,0.000000000000000000e+00,1.065353216000000000e+09
0.000000000000000000e+00,0.000000000000000000e+00,0.000000000000000000e+00,1.065353216000000000e+09
1.499999966472387314e-02,-9.700000286102294922e-02,2.899999916553497314e-02,1.065353216000000000e+09
1.485000014305114746e+00,-5.344999790191650391e+00,1.480999946594238281e+00,1.065353216000000000e+09
1.317999958992004395e+00,-5.421000003814697266e+00,1.542000055313110352e+00,1.065353216000000000e+09
0.000000000000000000e+00,0.000000000000000000e+00,0.000000000000000000e+00,1.065353216000000000e+09
0.000000000000000000e+00,0.000000000000000000e+00,0.000000000000000000e+00,1.065353216000000000e+09
1.564000010490417480e+00,-5.165999889373779297e+00,1.447999954223632812e+00,1.065353216000000000e+09
1.404999971389770508e+00,-5.248000144958496094e+00,1.506000041961669922e+00,1.065353216000000000e+09
0.000000000000000000e+00,0.000000000000000000e+00,0.000000000000000000e+00,1.065353216000000000e+09
0.000000000000000000e+00,0.000000000000000000e+00,0.000000000000000000e+00,1.065353216000000000e+09
1.636000037193298340e+00,-4.986999988555908203e+00,1.414999961853027344e+00,1.065353216000000000e+09
1.483000040054321289e+00,-5.073999881744384766e+00,1.470000028610229492e+00,1.065353216000000000e+09
1.345999956130981445e+00,-5.201000213623046875e+00,1.539999961853027344e+00,1.065353216000000000e+09
1.197000026702880859e+00,-5.288000106811523438e+00,1.592000007629394531e+00,1.065353216000000000e+09
1.707000017166137695e+00,-4.821000099182128906e+00,1.386999964714050293e+00,1.065353216000000000e+09
1.562999963760375977e+00,-4.923999786376953125e+00,1.440999984741210938e+00,1.065353216000000000e+09
1.424000024795532227e+00,-5.032000064849853516e+00,1.500000000000000000e+00,1.065353216000000000e+09
1.284000039100646973e+00,-5.130000114440917969e+00,1.550999999046325684e+00,1.065353216000000000e+09
1.777999997138977051e+00,-4.677999973297119141e+00,1.363999962806701660e+00,1.065353216000000000e+09
1.636000037193298340e+00,-4.776000022888183594e+00,1.411999940872192383e+00,1.065353216000000000e+09
1.501999974250793457e+00,-4.882999897003173828e+00,1.465999960899353027e+00,1.065353216000000000e+09
1.373000025749206543e+00,-5.006000041961669922e+00,1.519000053405761719e+00,1.065353216000000000e+09
1.838999986648559570e+00,-4.521999835968017578e+00,1.338000059127807617e+00,1.065353216000000000e+09
1.705000042915344238e+00,-4.631999969482421875e+00,1.384999990463256836e+00,1.065353216000000000e+09
1.580000042915344238e+00,-4.749000072479248047e+00,1.437000036239624023e+00,1.065353216000000000e+09
1.455999970436096191e+00,-4.875999927520751953e+00,1.486999988555908203e+00,1.065353216000000000e+09
1.901000022888183594e+00,-4.383999824523925781e+00,1.315999984741210938e+00,1.065353216000000000e+09
1.774000048637390137e+00,-4.500000000000000000e+00,1.360999941825866699e+00,1.065353216000000000e+09
1.652999997138977051e+00,-4.617000102996826172e+00,1.409000039100646973e+00,1.065353216000000000e+09
1.532999992370605469e+00,-4.738999843597412109e+00,1.453999996185302734e+00,1.065353216000000000e+09
1.957000017166137695e+00,-4.245999813079833984e+00,1.294999957084655762e+00,1.065353216000000000e+09
1.838999986648559570e+00,-4.368000030517578125e+00,1.337000012397766113e+00,1.065353216000000000e+09
1.723999977111816406e+00,-4.492000102996826172e+00,1.383000016212463379e+00,1.065353216000000000e+09
1.608999967575073242e+00,-4.616000175476074219e+00,1.424000024795532227e+00,1.065353216000000000e+09
2.016999959945678711e+00,-4.124000072479248047e+00,1.277999997138977051e+00,1.065353216000000000e+09
1.901000022888183594e+00,-4.243000030517578125e+00,1.315999984741210938e+00,1.065353216000000000e+09
1.791000008583068848e+00,-4.368000030517578125e+00,1.358000040054321289e+00,1.065353216000000000e+09
1.682000041007995605e+00,-4.495999813079833984e+00,1.396000027656555176e+00,1.065353216000000000e+09
2.063999891281127930e+00,-3.986999988555908203e+00,1.256000041961669922e+00,1.065353216000000000e+09
1.960000038146972656e+00,-4.122000217437744141e+00,1.294999957084655762e+00,1.065353216000000000e+09
1.858000040054321289e+00,-4.251999855041503906e+00,1.335000038146972656e+00,1.065353216000000000e+09
1.748999953269958496e+00,-4.369999885559082031e+00,1.366000056266784668e+00,1.065353216000000000e+09
2.115000009536743164e+00,-3.867000102996826172e+00,1.240000009536743164e+00,1.065353216000000000e+09
2.013999938964843750e+00,-3.996999979019165039e+00,1.273000001907348633e+00,1.065353216000000000e+09
1.917999982833862305e+00,-4.131999969482421875e+00,1.312000036239624023e+00,1.065353216000000000e+09
1.822999954223632812e+00,-4.268000125885009766e+00,1.345000028610229492e+00,1.065353216000000000e+09
2.160000085830688477e+00,-3.743000030517578125e+00,1.222000002861022949e+00,1.065353216000000000e+09
2.065000057220458984e+00,-3.875999927520751953e+00,1.253000020980834961e+00,1.065353216000000000e+09
1.975000023841857910e+00,-4.014999866485595703e+00,1.289000034332275391e+00,1.065353216000000000e+09
1.886000037193298340e+00,-4.152999877929687500e+00,1.320000052452087402e+00,1.065353216000000000e+09
2.206000089645385742e+00,-3.628000020980834961e+00,1.207000017166137695e+00,1.065353216000000000e+09
2.114000082015991211e+00,-3.759000062942504883e+00,1.233999967575073242e+00,1.065353216000000000e+09
2.032999992370605469e+00,-3.904000043869018555e+00,1.269000053405761719e+00,1.065353216000000000e+09
1.945999979972839355e+00,-4.039000034332275391e+00,1.294000029563903809e+00,1.065353216000000000e+09
2.250000000000000000e+00,-3.519000053405761719e+00,1.192000031471252441e+00,1.065353216000000000e+09
2.167999982833862305e+00,-3.655999898910522461e+00,1.220000028610229492e+00,1.065353216000000000e+09
2.086999893188476562e+00,-3.796000003814697266e+00,1.248999953269958496e+00,1.065353216000000000e+09
2.010999917984008789e+00,-3.940999984741210938e+00,1.274999976158142090e+00,1.065353216000000000e+09
2.286999940872192383e+00,-3.404999971389770508e+00,1.177000045776367188e+00,1.065353216000000000e+09
2.211999893188476562e+00,-3.545000076293945312e+00,1.202000021934509277e+00,1.065353216000000000e+09
2.141000032424926758e+00,-3.690999984741210938e+00,1.230999946594238281e+00,1.065353216000000000e+09
2.065000057220458984e+00,-3.828999996185302734e+00,1.251999974250793457e+00,1.065353216000000000e+09
2.323999881744384766e+00,-3.293999910354614258e+00,1.162999987602233887e+00,1.065353216000000000e+09
2.256999969482421875e+00,-3.440999984741210938e+00,1.187000036239624023e+00,1.065353216000000000e+09
2.190999984741210938e+00,-3.585999965667724609e+00,1.213000059127807617e+00,1.065353216000000000e+09
2.118999958038330078e+00,-3.721999883651733398e+00,1.230000019073486328e+00,1.065353216000000000e+09
2.362999916076660156e+00,-3.194000005722045898e+00,1.151999950408935547e+00,1.065353216000000000e+09
2.296000003814697266e+00,-3.332000017166137695e+00,1.169999957084655762e+00,1.065353216000000000e+09
2.236000061035156250e+00,-3.479000091552734375e+00,1.194000005722045898e+00,1.065353216000000000e+09
2.177999973297119141e+00,-3.631000041961669922e+00,1.213000059127807617e+00,1.065353216000000000e+09
2.398000001907348633e+00,-3.092000007629394531e+00,1.139000058174133301e+00,1.065353216000000000e+09
2.342999935150146484e+00,-3.239000082015991211e+00,1.159000039100646973e+00,1.065353216000000000e+09
2.282999992370605469e+00,-3.381999969482421875e+00,1.177999973297119141e+00,1.065353216000000000e+09
2.226999998092651367e+00,-3.526999950408935547e+00,1.192999958992004395e+00,1.065353216000000000e+09
2.424999952316284180e+00,-2.984999895095825195e+00,1.125000000000000000e+00,1.065353216000000000e+09
2.381000041961669922e+00,-3.140000104904174805e+00,1.144999980926513672e+00,1.065353216000000000e+09
2.328000068664550781e+00,-3.282999992370605469e+00,1.162999987602233887e+00,1.065353216000000000e+09
2.276000022888183594e+00,-3.427999973297119141e+00,1.174999952316284180e+00,1.065353216000000000e+09
2.456000089645385742e+00,-2.887000083923339844e+00,1.115000009536743164e+00,1.065353216000000000e+09
2.417000055313110352e+00,-3.040999889373779297e+00,1.131999969482421875e+00,1.065353216000000000e+09
2.367000102996826172e+00,-3.180999994277954102e+00,1.144999980926513672e+00,1.065353216000000000e+09
2.325000047683715820e+00,-3.332999944686889648e+00,1.157999992370605469e+00,1.065353216000000000e+09
2.446000099182128906e+00,-2.747999906539916992e+00,1.087000012397766113e+00,1.065353216000000000e+09
2.448999881744384766e+00,-2.940999984741210938e+00,1.118000030517578125e+00,1.065353216000000000e+09
2.411000013351440430e+00,-3.092000007629394531e+00,1.133000016212463379e+00,1.065353216000000000e+09
2.368999958038330078e+00,-3.233999967575073242e+00,1.139999985694885254e+00,1.065353216000000000e+09
2.433000087738037109e+00,-2.612999916076660156e+00,1.059000015258789062e+00,1.065353216000000000e+09
2.479000091552734375e+00,-2.845000028610229492e+00,1.105000019073486328e+00,1.065353216000000000e+09
2.444000005722045898e+00,-2.989000082015991211e+00,1.116000056266784668e+00,1.065353216000000000e+09
2.417000055313110352e+00,-3.145999908447265625e+00,1.126000046730041504e+00,1.065353216000000000e+09
2.479000091552734375e+00,-2.543999910354614258e+00,1.059000015258789062e+00,1.065353216000000000e+09
2.424999952316284180e+00,-2.657999992370605469e+00,1.055999994277954102e+00,1.065353216000000000e+09
2.471999883651733398e+00,-2.887000083923339844e+00,1.098999977111816406e+00,1.065353216000000000e+09
2.461999893188476562e+00,-3.055999994277954102e+00,1.110999941825866699e+00,1.065353216000000000e+09
2.546000003814697266e+00,-2.497999906539916992e+00,1.067999958992004395e+00,1.065353216000000000e+09
2.447999954223632812e+00,-2.563999891281127930e+00,1.042999982833862305e+00,1.065353216000000000e+09
2.460000038146972656e+00,-2.743000030517578125e+00,1.065000057220458984e+00,1.065353216000000000e+09
2.496999979019165039e+00,-2.956000089645385742e+00,1.093999981880187988e+00,1.065353216000000000e+09
2.595000028610229492e+00,-2.434999942779541016e+00,1.070999979972839355e+00,1.065353216000000000e+09
2.526999950408935547e+00,-2.529999971389770508e+00,1.054999947547912598e+00,1.065353216000000000e+09
2.427000045776367188e+00,-2.585000038146972656e+00,1.024999976158142090e+00,1.065353216000000000e+09
2.533999919891357422e+00,-2.862999916076660156e+00,1.078999996185302734e+00,1.065353216000000000e+09
2.615000009536743164e+00,-2.345000028610229492e+00,1.062000036239624023e+00,1.065353216000000000e+09
2.588000059127807617e+00,-2.476000070571899414e+00,1.059000015258789062e+00,1.065353216000000000e+09
2.506999969482421875e+00,-2.549999952316284180e+00,1.034999966621398926e+00,1.065353216000000000e+09
0.000000000000000000e+00,0.000000000000000000e+00,0.000000000000000000e+00,1.065353216000000000e+09
2.634999990463256836e+00,-2.257999897003173828e+00,1.054000020027160645e+00,1.065353216000000000e+09
2.628000020980834961e+00,-2.403000116348266602e+00,1.054999947547912598e+00,1.065353216000000000e+09
2.579999923706054688e+00,-2.506999969482421875e+00,1.041000008583068848e+00,1.065353216000000000e+09
0.000000000000000000e+00,0.000000000000000000e+00,0.000000000000000000e+00,1.065353216000000000e+09
2.654999971389770508e+00,-2.174999952316284180e+00,1.047000050544738770e+00,1.065353216000000000e+09
2.657000064849853516e+00,-2.319999933242797852e+00,1.047999978065490723e+00,1.065353216000000000e+09
2.641000032424926758e+00,-2.451999902725219727e+00,1.042999982833862305e+00,1.065353216000000000e+09
2.607000112533569336e+00,-2.562000036239624023e+00,1.024999976158142090e+00,1.065353216000000000e+09
2.681999921798706055e+00,-2.098000049591064453e+00,1.042999982833862305e+00,1.065353216000000000e+09
2.673000097274780273e+00,-2.230000019073486328e+00,1.036999940872192383e+00,1.065353216000000000e+09
2.674000024795532227e+00,-2.369999885559082031e+00,1.034999966621398926e+00,1.065353216000000000e+09
2.664000034332275391e+00,-2.500000000000000000e+00,1.021999955177307129e+00,1.065353216000000000e+09
2.700999975204467773e+00,-2.016999959945678711e+00,1.036999940872192383e+00,1.065353216000000000e+09
2.694999933242797852e+00,-2.147000074386596680e+00,1.027999997138977051e+00,1.065353216000000000e+09
2.707999944686889648e+00,-2.292000055313110352e+00,1.026999950408935547e+00,1.065353216000000000e+09
2.714999914169311523e+00,-2.431999921798706055e+00,1.018000006675720215e+00,1.065353216000000000e+09
2.713999986648559570e+00,-1.934000015258789062e+00,1.029999971389770508e+00,1.065353216000000000e+09
2.721999883651733398e+00,-2.068000078201293945e+00,1.023000001907348633e+00,1.065353216000000000e+09
2.726000070571899414e+00,-2.201999902725219727e+00,1.014999985694885254e+00,1.065353216000000000e+09
2.730999946594238281e+00,-2.332999944686889648e+00,1.001000046730041504e+00,1.065353216000000000e+09
2.729000091552734375e+00,-1.855000019073486328e+00,1.024000048637390137e+00,1.065353216000000000e+09
2.744999885559082031e+00,-1.990000009536743164e+00,1.016000032424926758e+00,1.065353216000000000e+09
2.756999969482421875e+00,-2.124000072479248047e+00,1.008000016212463379e+00,1.065353216000000000e+09
2.766999959945678711e+00,-2.255000114440917969e+00,9.929999709129333496e-01,1.065353216000000000e+09
2.746999979019165039e+00,-1.779000043869018555e+00,1.019999980926513672e+00,1.065353216000000000e+09
2.763999938964843750e+00,-1.909999966621398926e+00,1.008999943733215332e+00,1.065353216000000000e+09
2.773000001907348633e+00,-2.036999940872192383e+00,9.969999790191650391e-01,1.065353216000000000e+09
2.799000024795532227e+00,-2.174000024795532227e+00,9.840000271797180176e-01,1.065353216000000000e+09
2.759000062942504883e+00,-1.700999975204467773e+00,1.014000058174133301e+00,1.065353216000000000e+09
2.782999992370605469e+00,-1.830999970436096191e+00,1.003000020980834961e+00,1.065353216000000000e+09
2.801000118255615234e+00,-1.960000038146972656e+00,9.900000095367431641e-01,1.065353216000000000e+09
2.822999954223632812e+00,-2.088000059127807617e+00,9.729999899864196777e-01,1.065353216000000000e+09
2.776999950408935547e+00,-1.628000020980834961e+00,1.011000037193298340e+00,1.065353216000000000e+09
2.796000003814697266e+00,-1.751000046730041504e+00,9.959999918937683105e-01,1.065353216000000000e+09
2.815000057220458984e+00,-1.875000000000000000e+00,9.800000190734863281e-01,1.065353216000000000e+09
2.858999967575073242e+00,-2.013999938964843750e+00,9.670000076293945312e-01,1.065353216000000000e+09
2.786000013351440430e+00,-1.550999999046325684e+00,1.004999995231628418e+00,1.065353216000000000e+09
2.815000057220458984e+00,-1.674999952316284180e+00,9.900000095367431641e-01,1.065353216000000000e+09
2.848999977111816406e+00,-1.804000020027160645e+00,9.769999980926513672e-01,1.065353216000000000e+09
2.875000000000000000e+00,-1.924999952316284180e+00,9.549999833106994629e-01,1.065353216000000000e+09
2.790999889373779297e+00,-1.473999977111816406e+00,9.990000128746032715e-01,1.065353216000000000e+09
2.832000017166137695e+00,-1.600000023841857910e+00,9.850000143051147461e-01,1.065353216000000000e+09
2.858999967575073242e+00,-1.718999981880187988e+00,9.670000076293945312e-01,1.065353216000000000e+09
2.904999971389770508e+00,-1.848999977111816406e+00,9.490000009536743164e-01,1.065353216000000000e+09
2.809000015258789062e+00,-1.404999971389770508e+00,9.980000257492065430e-01,1.065353216000000000e+09
2.842000007629394531e+00,-1.521999955177307129e+00,9.789999723434448242e-01,1.065353216000000000e+09
2.875999927520751953e+00,-1.641000032424926758e+00,9.599999785423278809e-01,1.065353216000000000e+09
2.930000066757202148e+00,-1.769000053405761719e+00,9.419999718666076660e-01,1.065353216000000000e+09
2.822999954223632812e+00,-1.335000038146972656e+00,9.959999918937683105e-01,1.065353216000000000e+09
2.858999967575073242e+00,-1.449000000953674316e+00,9.750000238418579102e-01,1.065353216000000000e+09
2.900000095367431641e+00,-1.567000031471252441e+00,9.559999704360961914e-01,1.065353216000000000e+09
2.954999923706054688e+00,-1.690999984741210938e+00,9.340000152587890625e-01,1.065353216000000000e+09
2.822999954223632812e+00,-1.258999943733215332e+00,9.890000224113464355e-01,1.065353216000000000e+09
2.874000072479248047e+00,-1.376000046730041504e+00,9.710000157356262207e-01,1.065353216000000000e+09
2.917000055313110352e+00,-1.490000009536743164e+00,9.499999880790710449e-01,1.065353216000000000e+09
2.973999977111816406e+00,-1.610000014305114746e+00,9.259999990463256836e-01,1.065353216000000000e+09
2.838000059127807617e+00,-1.190999984741210938e+00,9.890000224113464355e-01,1.065353216000000000e+09
2.888000011444091797e+00,-1.302999973297119141e+00,9.670000076293945312e-01,1.065353216000000000e+09
2.936000108718872070e+00,-1.416000008583068848e+00,9.449999928474426270e-01,1.065353216000000000e+09
2.990999937057495117e+00,-1.529000043869018555e+00,9.190000295639038086e-01,1.065353216000000000e+09
2.845000028610229492e+00,-1.121000051498413086e+00,9.860000014305114746e-01,1.065353216000000000e+09
2.900000095367431641e+00,-1.230000019073486328e+00,9.639999866485595703e-01,1.065353216000000000e+09
2.953000068664550781e+00,-1.340999960899353027e+00,9.409999847412109375e-01,1.065353216000000000e+09
3.009999990463256836e+00,-1.450000047683715820e+00,9.120000004768371582e-01,1.065353216000000000e+09
2.848999977111816406e+00,-1.049999952316284180e+00,9.829999804496765137e-01,1.065353216000000000e+09
2.915999889373779297e+00,-1.159999966621398926e+00,9.620000123977661133e-01,1.065353216000000000e+09
2.967999935150146484e+00,-1.264999985694885254e+00,9.359999895095825195e-01,1.065353216000000000e+09
3.028000116348266602e+00,-1.371999979019165039e+00,9.060000181198120117e-01,1.065353216000000000e+09
2.864000082015991211e+00,-9.850000143051147461e-01,9.829999804496765137e-01,1.065353216000000000e+09
2.924999952316284180e+00,-1.087000012397766113e+00,9.589999914169311523e-01,1.065353216000000000e+09
2.980999946594238281e+00,-1.190999984741210938e+00,9.309999942779541016e-01,1.065353216000000000e+09
3.045000076293945312e+00,-1.292999982833862305e+00,8.999999761581420898e-01,1.065353216000000000e+09
2.869999885559082031e+00,-9.169999957084655762e-01,9.819999933242797852e-01,1.065353216000000000e+09
2.927000045776367188e+00,-1.014000058174133301e+00,9.530000090599060059e-01,1.065353216000000000e+09
2.990000009536743164e+00,-1.115000009536743164e+00,9.259999990463256836e-01,1.065353216000000000e+09
3.062000036239624023e+00,-1.215999960899353027e+00,8.949999809265136719e-01,1.065353216000000000e+09
2.871000051498413086e+00,-8.479999899864196777e-01,9.779999852180480957e-01,1.065353216000000000e+09
2.944000005722045898e+00,-9.459999799728393555e-01,9.530000090599060059e-01,1.065353216000000000e+09
3.006999969482421875e+00,-1.042999982833862305e+00,9.240000247955322266e-01,1.065353216000000000e+09
3.071000099182128906e+00,-1.136999964714050293e+00,8.880000114440917969e-01,1.065353216000000000e+09
2.878999948501586914e+00,-7.820000052452087402e-01,9.789999723434448242e-01,1.065353216000000000e+09
2.948999881744384766e+00,-8.750000000000000000e-01,9.499999880790710449e-01,1.065353216000000000e+09
3.013999938964843750e+00,-9.679999947547912598e-01,9.190000295639038086e-01,1.065353216000000000e+09
3.095000028610229492e+00,-1.062999963760375977e+00,8.859999775886535645e-01,1.065353216000000000e+09
2.881000041961669922e+00,-7.160000205039978027e-01,9.769999980926513672e-01,1.065353216000000000e+09
2.956000089645385742e+00,-8.050000071525573730e-01,9.480000138282775879e-01,1.065353216000000000e+09
3.029000043869018555e+00,-8.960000276565551758e-01,9.169999957084655762e-01,1.065353216000000000e+09
3.105999946594238281e+00,-9.850000143051147461e-01,8.809999823570251465e-01,1.065353216000000000e+09
2.885999917984008789e+00,-6.499999761581420898e-01,9.760000109672546387e-01,1.065353216000000000e+09
2.964999914169311523e+00,-7.360000014305114746e-01,9.470000267028808594e-01,1.065353216000000000e+09
3.039000034332275391e+00,-8.230000138282775879e-01,9.139999747276306152e-01,1.065353216000000000e+09
3.119999885559082031e+00,-9.079999923706054688e-01,8.769999742507934570e-01,1.065353216000000000e+09
2.891000032424926758e+00,-5.849999785423278809e-01,9.760000109672546387e-01,1.065353216000000000e+09
2.970000028610229492e+00,-6.669999957084655762e-01,9.449999928474426270e-01,1.065353216000000000e+09
3.049000024795532227e+00,-7.509999871253967285e-01,9.120000004768371582e-01,1.065353216000000000e+09
3.128000020980834961e+00,-8.309999704360961914e-01,8.730000257492065430e-01,1.065353216000000000e+09
2.891000032424926758e+00,-5.189999938011169434e-01,9.750000238418579102e-01,1.065353216000000000e+09
2.974999904632568359e+00,-5.979999899864196777e-01,9.440000057220458984e-01,1.065353216000000000e+09
3.059999942779541016e+00,-6.779999732971191406e-01,9.110000133514404297e-01,1.065353216000000000e+09
3.142999887466430664e+00,-7.549999952316284180e-01,8.700000047683715820e-01,1.065353216000000000e+09
2.894000053405761719e+00,-4.550000131130218506e-01,9.750000238418579102e-01,1.065353216000000000e+09
2.983000040054321289e+00,-5.289999842643737793e-01,9.440000057220458984e-01,1.065353216000000000e+09
3.065999984741210938e+00,-6.060000061988830566e-01,9.079999923706054688e-01,1.065353216000000000e+09
3.153000116348266602e+00,-6.779999732971191406e-01,8.669999837875366211e-01,1.065353216000000000e+09
2.901999950408935547e+00,-3.910000026226043701e-01,9.779999852180480957e-01,1.065353216000000000e+09
2.986999988555908203e+00,-4.609999954700469971e-01,9.430000185966491699e-01,1.065353216000000000e+09
3.072999954223632812e+00,-5.329999923706054688e-01,9.060000181198120117e-01,1.065353216000000000e+09
3.174000024795532227e+00,-6.039999723434448242e-01,8.679999709129333496e-01,1.065353216000000000e+09
2.901999950408935547e+00,-3.260000050067901611e-01,9.779999852180480957e-01,1.065353216000000000e+09
2.986999988555908203e+00,-3.930000066757202148e-01,9.409999847412109375e-01,1.065353216000000000e+09
3.078999996185302734e+00,-4.609999954700469971e-01,9.049999713897705078e-01,1.065353216000000000e+09
3.176000118255615234e+00,-5.270000100135803223e-01,8.640000224113464355e-01,1.065353216000000000e+09
2.900000095367431641e+00,-2.619999945163726807e-01,9.779999852180480957e-01,1.065353216000000000e+09
2.996999979019165039e+00,-3.249999880790710449e-01,9.430000185966491699e-01,1.065353216000000000e+09
3.085999965667724609e+00,-3.889999985694885254e-01,9.039999842643737793e-01,1.065353216000000000e+09
3.186000108718872070e+00,-4.499999880790710449e-01,8.619999885559082031e-01,1.065353216000000000e+09
2.907000064849853516e+00,-1.990000009536743164e-01,9.810000061988830566e-01,1.065353216000000000e+09
2.993000030517578125e+00,-2.569999992847442627e-01,9.419999718666076660e-01,1.065353216000000000e+09
3.088999986648559570e+00,-3.170000016689300537e-01,9.029999971389770508e-01,1.065353216000000000e+09
3.190999984741210938e+00,-3.729999959468841553e-01,8.600000143051147461e-01,1.065353216000000000e+09
2.898000001907348633e+00,-1.350000053644180298e-01,9.800000190734863281e-01,1.065353216000000000e+09
2.993000030517578125e+00,-1.889999955892562866e-01,9.419999718666076660e-01,1.065353216000000000e+09
3.088000059127807617e+00,-2.440000027418136597e-01,9.010000228881835938e-01,1.065353216000000000e+09
3.200000047683715820e+00,-2.969999909400939941e-01,8.590000271797180176e-01,1.065353216000000000e+09
2.894999980926513672e+00,-7.199999690055847168e-02,9.800000190734863281e-01,1.065353216000000000e+09
2.999000072479248047e+00,-1.220000013709068298e-01,9.440000057220458984e-01,1.065353216000000000e+09
3.092999935150146484e+00,-1.720000058412551880e-01,9.020000100135803223e-01,1.065353216000000000e+09
3.200000047683715820e+00,-2.199999988079071045e-01,8.569999933242797852e-01,1.065353216000000000e+09
2.898000001907348633e+00,-8.999999612569808960e-03,9.829999804496765137e-01,1.065353216000000000e+09
2.990999937057495117e+00,-5.400000140070915222e-02,9.419999718666076660e-01,1.065353216000000000e+09
3.088999986648559570e+00,-1.010000035166740417e-01,8.989999890327453613e-01,1.065353216000000000e+09
3.219000101089477539e+00,-1.439999938011169434e-01,8.600000143051147461e-01,1.065353216000000000e+09
2.894000053405761719e+00,5.400000140070915222e-02,9.850000143051147461e-01,1.065353216000000000e+09
2.990999937057495117e+00,1.300000026822090149e-02,9.430000185966491699e-01,1.065353216000000000e+09
3.098999977111816406e+00,-2.800000086426734924e-02,9.020000100135803223e-01,1.065353216000000000e+09
3.207000017166137695e+00,-6.599999964237213135e-02,8.550000190734863281e-01,1.065353216000000000e+09
2.884000062942504883e+00,1.159999966621398926e-01,9.840000271797180176e-01,1.065353216000000000e+09
2.996000051498413086e+00,7.999999821186065674e-02,9.470000267028808594e-01,1.065353216000000000e+09
3.092000007629394531e+00,4.300000146031379700e-02,9.010000228881835938e-01,1.065353216000000000e+09
3.204999923706054688e+00,9.999999776482582092e-03,8.539999723434448242e-01,1.065353216000000000e+09
2.882999897003173828e+00,1.790000051259994507e-01,9.869999885559082031e-01,1.065353216000000000e+09
2.990000009536743164e+00,1.480000019073486328e-01,9.470000267028808594e-01,1.065353216000000000e+09
3.092000007629394531e+00,1.140000000596046448e-01,9.020000100135803223e-01,1.065353216000000000e+09
3.224999904632568359e+00,8.699999749660491943e-02,8.590000271797180176e-01,1.065353216000000000e+09
2.880000114440917969e+00,2.409999966621398926e-01,9.900000095367431641e-01,1.065353216000000000e+09
2.983000040054321289e+00,2.150000035762786865e-01,9.470000267028808594e-01,1.065353216000000000e+09
3.099999904632568359e+00,1.870000064373016357e-01,9.049999713897705078e-01,1.065353216000000000e+09
3.214999914169311523e+00,1.640000045299530029e-01,8.560000061988830566e-01,1.065353216000000000e+09
2.878000020980834961e+00,3.039999902248382568e-01,9.929999709129333496e-01,1.065353216000000000e+09
2.986000061035156250e+00,2.820000052452087402e-01,9.509999752044677734e-01,1.065353216000000000e+09
3.092000007629394531e+00,2.590000033378601074e-01,9.049999713897705078e-01,1.065353216000000000e+09
3.219000101089477539e+00,2.419999986886978149e-01,8.590000271797180176e-01,1.065353216000000000e+09
2.868000030517578125e+00,3.670000135898590088e-01,9.950000047683715820e-01,1.065353216000000000e+09
2.976999998092651367e+00,3.499999940395355225e-01,9.520000219345092773e-01,1.065353216000000000e+09
3.085999965667724609e+00,3.310000002384185791e-01,9.060000181198120117e-01,1.065353216000000000e+09
3.210000038146972656e+00,3.199999928474426270e-01,8.579999804496765137e-01,1.065353216000000000e+09
2.867000102996826172e+00,4.300000071525573730e-01,9.990000128746032715e-01,1.065353216000000000e+09
2.969000101089477539e+00,4.169999957084655762e-01,9.530000090599060059e-01,1.065353216000000000e+09
3.085999965667724609e+00,4.040000140666961670e-01,9.089999794960021973e-01,1.065353216000000000e+09
3.210999965667724609e+00,3.980000019073486328e-01,8.600000143051147461e-01,1.065353216000000000e+09
2.857000112533569336e+00,4.920000135898590088e-01,1.001000046730041504e+00,1.065353216000000000e+09
2.967000007629394531e+00,4.850000143051147461e-01,9.570000171661376953e-01,1.065353216000000000e+09
3.081000089645385742e+00,4.769999980926513672e-01,9.110000133514404297e-01,1.065353216000000000e+09
3.203000068664550781e+00,4.749999940395355225e-01,8.600000143051147461e-01,1.065353216000000000e+09
2.848000049591064453e+00,5.540000200271606445e-01,1.003999948501586914e+00,1.065353216000000000e+09
2.957000017166137695e+00,5.519999861717224121e-01,9.589999914169311523e-01,1.065353216000000000e+09
3.073999881744384766e+00,5.490000247955322266e-01,9.120000004768371582e-01,1.065353216000000000e+09
3.201999902725219727e+00,5.550000071525573730e-01,8.629999756813049316e-01,1.065353216000000000e+09
2.841000080108642578e+00,6.169999837875366211e-01,1.008000016212463379e+00,1.065353216000000000e+09
2.951999902725219727e+00,6.190000176429748535e-01,9.629999995231628418e-01,1.065353216000000000e+09
3.069999933242797852e+00,6.219999790191650391e-01,9.160000085830688477e-01,1.065353216000000000e+09
3.196000099182128906e+00,6.330000162124633789e-01,8.650000095367431641e-01,1.065353216000000000e+09
2.828999996185302734e+00,6.790000200271606445e-01,1.009999990463256836e+00,1.065353216000000000e+09
2.947000026702880859e+00,6.880000233650207520e-01,9.670000076293945312e-01,1.065353216000000000e+09
3.056999921798706055e+00,6.940000057220458984e-01,9.169999957084655762e-01,1.065353216000000000e+09
3.187999963760375977e+00,7.120000123977661133e-01,8.669999837875366211e-01,1.065353216000000000e+09
2.822000026702880859e+00,7.419999837875366211e-01,1.014999985694885254e+00,1.065353216000000000e+09
2.940999984741210938e+00,7.570000290870666504e-01,9.710000157356262207e-01,1.065353216000000000e+09
3.051000118255615234e+00,7.680000066757202148e-01,9.210000038146972656e-01,1.065353216000000000e+09
3.173000097274780273e+00,7.900000214576721191e-01,8.679999709129333496e-01,1.065353216000000000e+09
2.806999921798706055e+00,8.040000200271606445e-01,1.018000006675720215e+00,1.065353216000000000e+09
2.924999952316284180e+00,8.240000009536743164e-01,9.739999771118164062e-01,1.065353216000000000e+09
3.049999952316284180e+00,8.450000286102294922e-01,9.269999861717224121e-01,1.065353216000000000e+09
3.158999919891357422e+00,8.679999709129333496e-01,8.700000047683715820e-01,1.065353216000000000e+09
2.796000003814697266e+00,8.669999837875366211e-01,1.021999955177307129e+00,1.065353216000000000e+09
2.911999940872192383e+00,8.909999728202819824e-01,9.769999980926513672e-01,1.065353216000000000e+09
3.042000055313110352e+00,9.190000295639038086e-01,9.309999942779541016e-01,1.065353216000000000e+09
3.157999992370605469e+00,9.499999880790710449e-01,8.759999871253967285e-01,1.065353216000000000e+09
2.789000034332275391e+00,9.319999814033508301e-01,1.027999997138977051e+00,1.065353216000000000e+09
2.904000043869018555e+00,9.610000252723693848e-01,9.819999933242797852e-01,1.065353216000000000e+09
3.023999929428100586e+00,9.909999966621398926e-01,9.330000281333923340e-01,1.065353216000000000e+09
3.145999908447265625e+00,1.029999971389770508e+00,8.790000081062316895e-01,1.065353216000000000e+09
2.776999950408935547e+00,9.950000047683715820e-01,1.032999992370605469e+00,1.065353216000000000e+09
2.892999887466430664e+00,1.029999971389770508e+00,9.869999885559082031e-01,1.065353216000000000e+09
3.012000083923339844e+00,1.065999984741210938e+00,9.380000233650207520e-01,1.065353216000000000e+09
3.131000041961669922e+00,1.110000014305114746e+00,8.830000162124633789e-01,1.065353216000000000e+09
2.763000011444091797e+00,1.057999968528747559e+00,1.036999940872192383e+00,1.065353216000000000e+09
2.875000000000000000e+00,1.097000002861022949e+00,9.900000095367431641e-01,1.065353216000000000e+09
3.002000093460083008e+00,1.141999959945678711e+00,9.430000185966491699e-01,1.065353216000000000e+09
3.111999988555908203e+00,1.187999963760375977e+00,8.859999775886535645e-01,1.065353216000000000e+09
2.744999885559082031e+00,1.120000004768371582e+00,1.041000008583068848e+00,1.065353216000000000e+09
2.867000102996826172e+00,1.167999982833862305e+00,9.969999790191650391e-01,1.065353216000000000e+09
2.983999967575073242e+00,1.215999960899353027e+00,9.470000267028808594e-01,1.065353216000000000e+09
3.109999895095825195e+00,1.274000048637390137e+00,8.939999938011169434e-01,1.065353216000000000e+09
2.732000112533569336e+00,1.184000015258789062e+00,1.046000003814697266e+00,1.065353216000000000e+09
2.851000070571899414e+00,1.238000035285949707e+00,1.003000020980834961e+00,1.065353216000000000e+09
2.973999977111816406e+00,1.292999982833862305e+00,9.539999961853027344e-01,1.065353216000000000e+09
3.098999977111816406e+00,1.358999967575073242e+00,8.999999761581420898e-01,1.065353216000000000e+09
2.720000028610229492e+00,1.250000000000000000e+00,1.054000020027160645e+00,1.065353216000000000e+09
2.841000080108642578e+00,1.310999989509582520e+00,1.009999990463256836e+00,1.065353216000000000e+09
2.959000110626220703e+00,1.370000004768371582e+00,9.599999785423278809e-01,1.065353216000000000e+09
3.082000017166137695e+00,1.440999984741210938e+00,9.060000181198120117e-01,1.065353216000000000e+09
2.710999965667724609e+00,1.317999958992004395e+00,1.062000036239624023e+00,1.065353216000000000e+09
2.825999975204467773e+00,1.381999969482421875e+00,1.016999959945678711e+00,1.065353216000000000e+09
2.944000005722045898e+00,1.447999954223632812e+00,9.670000076293945312e-01,1.065353216000000000e+09
3.059000015258789062e+00,1.521999955177307129e+00,9.110000133514404297e-01,1.065353216000000000e+09
2.690999984741210938e+00,1.379999995231628418e+00,1.067000031471252441e+00,1.065353216000000000e+09
2.802000045776367188e+00,1.449000000953674316e+00,1.019999980926513672e+00,1.065353216000000000e+09
2.924000024795532227e+00,1.524000048637390137e+00,9.720000028610229492e-01,1.065353216000000000e+09
3.046000003814697266e+00,1.608999967575073242e+00,9.190000295639038086e-01,1.065353216000000000e+09
2.668999910354614258e+00,1.442999958992004395e+00,1.070999979972839355e+00,1.065353216000000000e+09
2.786999940872192383e+00,1.521999955177307129e+00,1.027999997138977051e+00,1.065353216000000000e+09
2.901000022888183594e+00,1.598999977111816406e+00,9.779999852180480957e-01,1.065353216000000000e+09
3.026000022888183594e+00,1.692999958992004395e+00,9.259999990463256836e-01,1.065353216000000000e+09
2.658999919891357422e+00,1.511999964714050293e+00,1.080999970436096191e+00,1.065353216000000000e+09
2.763999938964843750e+00,1.590999960899353027e+00,1.034000039100646973e+00,1.065353216000000000e+09
2.884999990463256836e+00,1.679000020027160645e+00,9.860000014305114746e-01,1.065353216000000000e+09
3.015000104904174805e+00,1.784000039100646973e+00,9.359999895095825195e-01,1.065353216000000000e+09
2.641999959945678711e+00,1.580000042915344238e+00,1.088999986648559570e+00,1.065353216000000000e+09
2.750000000000000000e+00,1.666000008583068848e+00,1.042999982833862305e+00,1.065353216000000000e+09
2.864000082015991211e+00,1.758999943733215332e+00,9.940000176429748535e-01,1.065353216000000000e+09
2.993999958038330078e+00,1.871999979019165039e+00,9.449999928474426270e-01,1.065353216000000000e+09
2.618999958038330078e+00,1.644000053405761719e+00,1.095000028610229492e+00,1.065353216000000000e+09
2.730000019073486328e+00,1.740000009536743164e+00,1.050999999046325684e+00,1.065353216000000000e+09
2.845000028610229492e+00,1.840000033378601074e+00,1.003000020980834961e+00,1.065353216000000000e+09
2.963999986648559570e+00,1.953999996185302734e+00,9.509999752044677734e-01,1.065353216000000000e+09
2.599999904632568359e+00,1.713000059127807617e+00,1.103000044822692871e+00,1.065353216000000000e+09
2.707999944686889648e+00,1.812999963760375977e+00,1.059000015258789062e+00,1.065353216000000000e+09
2.819999933242797852e+00,1.919000029563903809e+00,1.011000037193298340e+00,1.065353216000000000e+09
2.940999984741210938e+00,2.042999982833862305e+00,9.610000252723693848e-01,1.065353216000000000e+09
2.582000017166137695e+00,1.781999945640563965e+00,1.111999988555908203e+00,1.065353216000000000e+09
2.687000036239624023e+00,1.889000058174133301e+00,1.069000005722045898e+00,1.065353216000000000e+09
2.796999931335449219e+00,2.000999927520751953e+00,1.019999980926513672e+00,1.065353216000000000e+09
2.923000097274780273e+00,2.138000011444091797e+00,9.729999899864196777e-01,1.065353216000000000e+09
2.561000108718872070e+00,1.850000023841857910e+00,1.121000051498413086e+00,1.065353216000000000e+09
2.664999961853027344e+00,1.963999986648559570e+00,1.077999949455261230e+00,1.065353216000000000e+09
2.773000001907348633e+00,2.082999944686889648e+00,1.029999971389770508e+00,1.065353216000000000e+09
2.888999938964843750e+00,2.223000049591064453e+00,9.810000061988830566e-01,1.065353216000000000e+09
2.542999982833862305e+00,1.922999978065490723e+00,1.131999969482421875e+00,1.065353216000000000e+09
2.644000053405761719e+00,2.042000055313110352e+00,1.088999986648559570e+00,1.065353216000000000e+09
2.747999906539916992e+00,2.165999889373779297e+00,1.039999961853027344e+00,1.065353216000000000e+09
2.852999925613403320e+00,2.306999921798706055e+00,9.890000224113464355e-01,1.065353216000000000e+09
2.515000104904174805e+00,1.988999962806701660e+00,1.139000058174133301e+00,1.065353216000000000e+09
2.618000030517578125e+00,2.117000102996826172e+00,1.098000049591064453e+00,1.065353216000000000e+09
2.726999998092651367e+00,2.256000041961669922e+00,1.054000020027160645e+00,1.065353216000000000e+09
2.825999975204467773e+00,2.401000022888183594e+00,1.001000046730041504e+00,1.065353216000000000e+09
2.489000082015991211e+00,2.056999921798706055e+00,1.146999955177307129e+00,1.065353216000000000e+09
2.591000080108642578e+00,2.194999933242797852e+00,1.108000040054321289e+00,1.065353216000000000e+09
2.693000078201293945e+00,2.335999965667724609e+00,1.062999963760375977e+00,1.065353216000000000e+09
2.795000076293945312e+00,2.494999885559082031e+00,1.013000011444091797e+00,1.065353216000000000e+09
2.467000007629394531e+00,2.131000041961669922e+00,1.159000039100646973e+00,1.065353216000000000e+09
2.565000057220458984e+00,2.273999929428100586e+00,1.120000004768371582e+00,1.065353216000000000e+09
2.664000034332275391e+00,2.421999931335449219e+00,1.075000047683715820e+00,1.065353216000000000e+09
2.773000001907348633e+00,2.598999977111816406e+00,1.029999971389770508e+00,1.065353216000000000e+09
2.436000108718872070e+00,2.197999954223632812e+00,1.167000055313110352e+00,1.065353216000000000e+09
2.529000043869018555e+00,2.345999956130981445e+00,1.128000020980834961e+00,1.065353216000000000e+09
2.632999897003173828e+00,2.509999990463256836e+00,1.088000059127807617e+00,1.065353216000000000e+09
2.737999916076660156e+00,2.693000078201293945e+00,1.042999982833862305e+00,1.065353216000000000e+09
2.407999992370605469e+00,2.270999908447265625e+00,1.177000045776367188e+00,1.065353216000000000e+09
2.500999927520751953e+00,2.427000045776367188e+00,1.141000032424926758e+00,1.065353216000000000e+09
2.589999914169311523e+00,2.588000059127807617e+00,1.095999956130981445e+00,1.065353216000000000e+09
2.703000068664550781e+00,2.790999889373779297e+00,1.057000041007995605e+00,1.065353216000000000e+09
2.388000011444091797e+00,2.351000070571899414e+00,1.192000031471252441e+00,1.065353216000000000e+09
2.476000070571899414e+00,2.513999938964843750e+00,1.156000018119812012e+00,1.065353216000000000e+09
2.555999994277954102e+00,2.674999952316284180e+00,1.108999967575073242e+00,1.065353216000000000e+09
2.665999889373779297e+00,2.890000104904174805e+00,1.072000026702880859e+00,1.065353216000000000e+09
2.355000019073486328e+00,2.421000003814697266e+00,1.202000021934509277e+00,1.065353216000000000e+09
2.437999963760375977e+00,2.588999986648559570e+00,1.164999961853027344e+00,1.065353216000000000e+09
2.522000074386596680e+00,2.766999959945678711e+00,1.123999953269958496e+00,1.065353216000000000e+09
2.630000114440917969e+00,2.993000030517578125e+00,1.088000059127807617e+00,1.065353216000000000e+09
2.328000068664550781e+00,2.500000000000000000e+00,1.215999960899353027e+00,1.065353216000000000e+09
2.404999971389770508e+00,2.673000097274780273e+00,1.179000020027160645e+00,1.065353216000000000e+09
2.489000082015991211e+00,2.861999988555908203e+00,1.139999985694885254e+00,1.065353216000000000e+09
2.585000038146972656e+00,3.091000080108642578e+00,1.103999972343444824e+00,1.065353216000000000e+09
2.289000034332275391e+00,2.569999933242797852e+00,1.225000023841857910e+00,1.065353216000000000e+09
2.362999916076660156e+00,2.750999927520751953e+00,1.190999984741210938e+00,1.065353216000000000e+09
2.453999996185302734e+00,2.960000038146972656e+00,1.156999945640563965e+00,1.065353216000000000e+09
2.539000034332275391e+00,3.190999984741210938e+00,1.120000004768371582e+00,1.065353216000000000e+09
2.253999948501586914e+00,2.644000053405761719e+00,1.236999988555908203e+00,1.065353216000000000e+09
2.328000068664550781e+00,2.835999965667724609e+00,1.205999970436096191e+00,1.065353216000000000e+09
2.420000076293945312e+00,3.062000036239624023e+00,1.177000045776367188e+00,1.065353216000000000e+09
2.496999979019165039e+00,3.298000097274780273e+00,1.139000058174133301e+00,1.065353216000000000e+09
2.223999977111816406e+00,2.726999998092651367e+00,1.253000020980834961e+00,1.065353216000000000e+09
2.296000003814697266e+00,2.930000066757202148e+00,1.223999977111816406e+00,1.065353216000000000e+09
2.372999906539916992e+00,3.153000116348266602e+00,1.192000031471252441e+00,1.065353216000000000e+09
2.447000026702880859e+00,3.400000095367431641e+00,1.156000018119812012e+00,1.065353216000000000e+09
2.187999963760375977e+00,2.805000066757202148e+00,1.266999959945678711e+00,1.065353216000000000e+09
2.259000062942504883e+00,3.020999908447265625e+00,1.241000056266784668e+00,1.065353216000000000e+09
2.329999923706054688e+00,3.250000000000000000e+00,1.208999991416931152e+00,1.065353216000000000e+09
2.401000022888183594e+00,3.512000083923339844e+00,1.177000045776367188e+00,1.065353216000000000e+09
2.145999908447265625e+00,2.878000020980834961e+00,1.277999997138977051e+00,1.065353216000000000e+09
2.213999986648559570e+00,3.104000091552734375e+00,1.254999995231628418e+00,1.065353216000000000e+09
2.283999919891357422e+00,3.348000049591064453e+00,1.228000044822692871e+00,1.065353216000000000e+09
2.351000070571899414e+00,3.624000072479248047e+00,1.197999954223632812e+00,1.065353216000000000e+09
2.105999946594238281e+00,2.957000017166137695e+00,1.292000055313110352e+00,1.065353216000000000e+09
2.170000076293945312e+00,3.193000078201293945e+00,1.271999955177307129e+00,1.065353216000000000e+09
2.236999988555908203e+00,3.450000047683715820e+00,1.246999979019165039e+00,1.065353216000000000e+09
2.299000024795532227e+00,3.740999937057495117e+00,1.222000002861022949e+00,1.065353216000000000e+09
2.073999881744384766e+00,3.051000118255615234e+00,1.312999963760375977e+00,1.065353216000000000e+09
2.127000093460083008e+00,3.286999940872192383e+00,1.291000008583068848e+00,1.065353216000000000e+09
2.181999921798706055e+00,3.546999931335449219e+00,1.266000032424926758e+00,1.065353216000000000e+09
2.243999958038330078e+00,3.858000040054321289e+00,1.245000004768371582e+00,1.065353216000000000e+09
2.025000095367431641e+00,3.125000000000000000e+00,1.325000047683715820e+00,1.065353216000000000e+09
2.079999923706054688e+00,3.380000114440917969e+00,1.309999942779541016e+00,1.065353216000000000e+09
2.131999969482421875e+00,3.654000043869018555e+00,1.287999987602233887e+00,1.065353216000000000e+09
2.186000108718872070e+00,3.976999998092651367e+00,1.269999980926513672e+00,1.065353216000000000e+09
1.981999993324279785e+00,3.210999965667724609e+00,1.342000007629394531e+00,1.065353216000000000e+09
2.029999971389770508e+00,3.473999977111816406e+00,1.328999996185302734e+00,1.065353216000000000e+09
2.075999975204467773e+00,3.756999969482421875e+00,1.309999942779541016e+00,1.065353216000000000e+09
2.125999927520751953e+00,4.099999904632568359e+00,1.297000050544738770e+00,1.065353216000000000e+09
1.939000010490417480e+00,3.299999952316284180e+00,1.360999941825866699e+00,1.065353216000000000e+09
1.978000044822692871e+00,3.566999912261962891e+00,1.348000049591064453e+00,1.065353216000000000e+09
2.017999887466430664e+00,3.865000009536743164e+00,1.332999944686889648e+00,1.065353216000000000e+09
2.059999942779541016e+00,4.218999862670898438e+00,1.322999954223632812e+00,1.065353216000000000e+09
1.898000001907348633e+00,3.398000001907348633e+00,1.383000016212463379e+00,1.065353216000000000e+09
1.927000045776367188e+00,3.668999910354614258e+00,1.371000051498413086e+00,1.065353216000000000e+09
1.960000038146972656e+00,3.973999977111816406e+00,1.356999993324279785e+00,1.065353216000000000e+09
1.993999958038330078e+00,4.346000194549560547e+00,1.350999951362609863e+00,1.065353216000000000e+09
1.845999956130981445e+00,3.480000019073486328e+00,1.399000048637390137e+00,1.065353216000000000e+09
1.870000004768371582e+00,3.763000011444091797e+00,1.391000032424926758e+00,1.065353216000000000e+09
1.899999976158142090e+00,4.093999862670898438e+00,1.384999990463256836e+00,1.065353216000000000e+09
1.917000055313110352e+00,4.459000110626220703e+00,1.376000046730041504e+00,1.065353216000000000e+09
1.794999957084655762e+00,3.572999954223632812e+00,1.419999957084655762e+00,1.065353216000000000e+09
1.812000036239624023e+00,3.864000082015991211e+00,1.412999987602233887e+00,1.065353216000000000e+09
1.832000017166137695e+00,4.201000213623046875e+00,1.409000039100646973e+00,1.065353216000000000e+09
1.840999960899353027e+00,4.586999893188476562e+00,1.406999945640563965e+00,1.065353216000000000e+09
1.743000030517578125e+00,3.670000076293945312e+00,1.442000031471252441e+00,1.065353216000000000e+09
1.748999953269958496e+00,3.963000059127807617e+00,1.435999989509582520e+00,1.065353216000000000e+09
1.761999964714050293e+00,4.314000129699707031e+00,1.434999942779541016e+00,1.065353216000000000e+09
1.766000032424926758e+00,4.724999904632568359e+00,1.440000057220458984e+00,1.065353216000000000e+09
1.687999963760375977e+00,3.765000104904174805e+00,1.463999986648559570e+00,1.065353216000000000e+09
1.690999984741210938e+00,4.078000068664550781e+00,1.463999986648559570e+00,1.065353216000000000e+09
1.690000057220458984e+00,4.431000232696533203e+00,1.463999986648559570e+00,1.065353216000000000e+09
1.679999947547912598e+00,4.850999832153320312e+00,1.470999956130981445e+00,1.065353216000000000e+09
1.633999943733215332e+00,3.868000030517578125e+00,1.488999962806701660e+00,1.065353216000000000e+09
1.625000000000000000e+00,4.184999942779541016e+00,1.490000009536743164e+00,1.065353216000000000e+09
1.621999979019165039e+00,4.571000099182128906e+00,1.500000000000000000e+00,1.065353216000000000e+09
1.598000049591064453e+00,4.999000072479248047e+00,1.509999990463256836e+00,1.065353216000000000e+09
