x,y,z,intensity
0.000000000000000000e+00,0.000000000000000000e+00,0.000000000000000000e+00,1.065353216000000000e+09
1.497000026702880859e+01,1.756200027465820312e+01,6.170000076293945312e+00,1.065353216000000000e+09
0.000000000000000000e+00,0.000000000000000000e+00,0.000000000000000000e+00,1.065353216000000000e+09
0.000000000000000000e+00,0.000000000000000000e+00,0.000000000000000000e+00,1.065353216000000000e+09
1.386100006103515625e+01,1.642600059509277344e+01,6.341000080108642578e+00,1.065353216000000000e+09
0.000000000000000000e+00,0.000000000000000000e+00,0.000000000000000000e+00,1.065353216000000000e+09
0.000000000000000000e+00,0.000000000000000000e+00,0.000000000000000000e+00,1.065353216000000000e+09
1.291100025177001953e+01,1.535000038146972656e+01,6.462999820709228516e+00,1.065353216000000000e+09
1.302299976348876953e+01,1.617600059509277344e+01,6.131999969482421875e+00,1.065353216000000000e+09
0.000000000000000000e+00,0.000000000000000000e+00,0.000000000000000000e+00,1.065353216000000000e+09
1.202900028228759766e+01,1.441600036621093750e+01,6.554999828338623047e+00,1.065353216000000000e+09
1.238399982452392578e+01,1.540799999237060547e+01,6.368999958038330078e+00,1.065353216000000000e+09
1.024699974060058594e+01,1.335200023651123047e+01,4.974999904632568359e+00,1.065353216000000000e+09
8.394000053405761719e+00,1.141699981689453125e+01,3.806999921798706055e+00,1.065353216000000000e+09
1.160599994659423828e+01,1.453299999237060547e+01,6.486000061035156250e+00,1.065353216000000000e+09
1.013599967956542969e+01,1.320800018310546875e+01,5.363999843597412109e+00,1.065353216000000000e+09
8.303999900817871094e+00,1.135400009155273438e+01,4.160999774932861328e+00,1.065353216000000000e+09
6.986999988555908203e+00,9.996000289916992188e+00,3.282000064849853516e+00,1.065353216000000000e+09
9.947999954223632812e+00,1.302200031280517578e+01,5.710000038146972656e+00,1.065353216000000000e+09
8.300000190734863281e+00,1.132999992370605469e+01,4.524000167846679688e+00,1.065353216000000000e+09
6.967000007629394531e+00,1.000300025939941406e+01,3.608000040054321289e+00,1.065353216000000000e+09
5.923999786376953125e+00,8.925999641418457031e+00,2.888999938964843750e+00,1.065353216000000000e+09
8.241999626159667969e+00,1.128499984741210938e+01,4.864999771118164062e+00,1.065353216000000000e+09
6.975999832153320312e+00,9.982999801635742188e+00,3.921999931335449219e+00,1.065353216000000000e+09
5.927000045776367188e+00,8.946999549865722656e+00,3.180000066757202148e+00,1.065353216000000000e+09
5.073999881744384766e+00,8.055999755859375000e+00,2.572000026702880859e+00,1.065353216000000000e+09
7.025000095367431641e+00,1.007100009918212891e+01,4.270999908447265625e+00,1.065353216000000000e+09
5.967999935150146484e+00,8.960000038146972656e+00,3.466000080108642578e+00,1.065353216000000000e+09
5.090000152587890625e+00,8.083999633789062500e+00,2.832999944686889648e+00,1.065353216000000000e+09
4.383999824523925781e+00,7.348999977111816406e+00,2.316999912261962891e+00,1.065353216000000000e+09
6.006999969482421875e+00,9.020000457763671875e+00,3.765000104904174805e+00,1.065353216000000000e+09
5.164000034332275391e+00,8.145000457763671875e+00,3.104000091552734375e+00,1.065353216000000000e+09
4.433000087738037109e+00,7.418000221252441406e+00,2.565999984741210938e+00,1.065353216000000000e+09
3.816999912261962891e+00,6.761000156402587891e+00,2.105999946594238281e+00,1.065353216000000000e+09
5.230000019073486328e+00,8.237999916076660156e+00,3.387000083923339844e+00,1.065353216000000000e+09
4.505000114440917969e+00,7.469999790191650391e+00,2.806999921798706055e+00,1.065353216000000000e+09
3.891000032424926758e+00,6.866000175476074219e+00,2.345000028610229492e+00,1.065353216000000000e+09
3.388000011444091797e+00,6.353000164031982422e+00,1.957000017166137695e+00,1.065353216000000000e+09
4.566999912261962891e+00,7.548999786376953125e+00,3.059000015258789062e+00,1.065353216000000000e+09
3.960000038146972656e+00,6.914999961853027344e+00,2.563999891281127930e+00,1.065353216000000000e+09
3.437999963760375977e+00,6.407999992370605469e+00,2.163000106811523438e+00,1.065353216000000000e+09
2.984999895095825195e+00,5.936999797821044922e+00,1.809999942779541016e+00,1.065353216000000000e+09
4.032000064849853516e+00,7.002999782562255859e+00,2.798000097274780273e+00,1.065353216000000000e+09
3.515000104904174805e+00,6.467999935150146484e+00,2.368000030517578125e+00,1.065353216000000000e+09
3.042999982833862305e+00,6.002999782562255859e+00,2.003999948501586914e+00,1.065353216000000000e+09
2.647000074386596680e+00,5.593999862670898438e+00,1.690000057220458984e+00,1.065353216000000000e+09
3.585999965667724609e+00,6.556000232696533203e+00,2.584000110626220703e+00,1.065353216000000000e+09
3.119999885559082031e+00,6.061999797821044922e+00,2.191999912261962891e+00,1.065353216000000000e+09
2.704999923706054688e+00,5.657999992370605469e+00,1.868999958038330078e+00,1.065353216000000000e+09
2.357000112533569336e+00,5.306000232696533203e+00,1.588999986648559570e+00,1.065353216000000000e+09
3.198999881744384766e+00,6.162000179290771484e+00,2.398000001907348633e+00,1.065353216000000000e+09
2.788000106811523438e+00,5.731999874114990234e+00,2.049000024795532227e+00,1.065353216000000000e+09
2.411000013351440430e+00,5.359000205993652344e+00,1.753000020980834961e+00,1.065353216000000000e+09
2.089999914169311523e+00,5.026000022888183594e+00,1.493000030517578125e+00,1.065353216000000000e+09
2.861999988555908203e+00,5.822000026702880859e+00,2.237999916076660156e+00,1.065353216000000000e+09
2.493000030517578125e+00,5.431000232696533203e+00,1.921000003814697266e+00,1.065353216000000000e+09
2.153000116348266602e+00,5.099999904632568359e+00,1.652999997138977051e+00,1.065353216000000000e+09
1.860999941825866699e+00,4.800000190734863281e+00,1.416000008583068848e+00,1.065353216000000000e+09
2.565000057220458984e+00,5.518000125885009766e+00,2.095000028610229492e+00,1.065353216000000000e+09
2.233999967575073242e+00,5.173999786376953125e+00,1.810999989509582520e+00,1.065353216000000000e+09
1.924999952316284180e+00,4.872000217437744141e+00,1.565999984741210938e+00,1.065353216000000000e+09
1.657999992370605469e+00,4.599999904632568359e+00,1.348000049591064453e+00,1.065353216000000000e+09
2.306999921798706055e+00,5.263000011444091797e+00,1.975999951362609863e+00,1.065353216000000000e+09
2.003000020980834961e+00,4.940999984741210938e+00,1.713000059127807617e+00,1.065353216000000000e+09
1.722000002861022949e+00,4.672999858856201172e+00,1.490000009536743164e+00,1.065353216000000000e+09
1.468000054359436035e+00,4.397999763488769531e+00,1.281999945640563965e+00,1.065353216000000000e+09
2.075999975204467773e+00,5.033999919891357422e+00,1.870000004768371582e+00,1.065353216000000000e+09
1.792999982833862305e+00,4.728000164031982422e+00,1.623999953269958496e+00,1.065353216000000000e+09
1.532999992370605469e+00,4.477000236511230469e+00,1.417999982833862305e+00,1.065353216000000000e+09
1.297999978065490723e+00,4.225999832153320312e+00,1.225000023841857910e+00,1.065353216000000000e+09
1.866000056266784668e+00,4.818999767303466797e+00,1.771999955177307129e+00,1.065353216000000000e+09
1.603999972343444824e+00,4.535999774932861328e+00,1.544999957084655762e+00,1.065353216000000000e+09
1.363000035285949707e+00,4.304999828338623047e+00,1.353999972343444824e+00,1.065353216000000000e+09
1.146999955177307129e+00,4.078000068664550781e+00,1.177000045776367188e+00,1.065353216000000000e+09
1.672999978065490723e+00,4.618000030517578125e+00,1.680999994277954102e+00,1.065353216000000000e+09
1.435999989509582520e+00,4.370999813079833984e+00,1.475999951362609863e+00,1.065353216000000000e+09
1.203999996185302734e+00,4.135000228881835938e+00,1.292999982833862305e+00,1.065353216000000000e+09
1.006000041961669922e+00,3.937000036239624023e+00,1.131999969482421875e+00,1.065353216000000000e+09
1.503000020980834961e+00,4.455999851226806641e+00,1.606999993324279785e+00,1.065353216000000000e+09
1.276000022888183594e+00,4.201000213623046875e+00,1.407999992370605469e+00,1.065353216000000000e+09
1.062000036239624023e+00,3.992000102996826172e+00,1.241999983787536621e+00,1.065353216000000000e+09
8.709999918937683105e-01,3.786000013351440430e+00,1.085999965667724609e+00,1.065353216000000000e+09
1.340000033378601074e+00,4.282000064849853516e+00,1.531000018119812012e+00,1.065353216000000000e+09
1.131999969482421875e+00,4.057000160217285156e+00,1.350000023841857910e+00,1.065353216000000000e+09
9.319999814033508301e-01,3.864000082015991211e+00,1.197000026702880859e+00,1.065353216000000000e+09
7.519999742507934570e-01,3.671000003814697266e+00,1.050999999046325684e+00,1.065353216000000000e+09
1.192999958992004395e+00,4.129000186920166016e+00,1.463999986648559570e+00,1.065353216000000000e+09
9.959999918937683105e-01,3.911999940872192383e+00,1.294000029563903809e+00,1.065353216000000000e+09
8.100000023841857910e-01,3.736999988555908203e+00,1.152999997138977051e+00,1.065353216000000000e+09
6.409999728202819824e-01,3.559999942779541016e+00,1.016999959945678711e+00,1.065353216000000000e+09
1.060999989509582520e+00,3.999000072479248047e+00,1.406000018119812012e+00,1.065353216000000000e+09
8.740000128746032715e-01,3.789000034332275391e+00,1.246000051498413086e+00,1.065353216000000000e+09
6.940000057220458984e-01,3.607000112533569336e+00,1.108999967575073242e+00,1.065353216000000000e+09
5.370000004768371582e-01,3.448999881744384766e+00,9.840000271797180176e-01,1.065353216000000000e+09
9.319999814033508301e-01,3.858000040054321289e+00,1.347000002861022949e+00,1.065353216000000000e+09
7.609999775886535645e-01,3.678999900817871094e+00,1.202999949455261230e+00,1.065353216000000000e+09
5.910000205039978027e-01,3.506999969482421875e+00,1.075000047683715820e+00,1.065353216000000000e+09
4.399999976158142090e-01,3.351999998092651367e+00,9.559999704360961914e-01,1.065353216000000000e+09
8.149999976158142090e-01,3.733999967575073242e+00,1.294000029563903809e+00,1.065353216000000000e+09
6.539999842643737793e-01,3.569999933242797852e+00,1.161999940872192383e+00,1.065353216000000000e+09
4.950000047683715820e-01,3.421999931335449219e+00,1.046000003814697266e+00,1.065353216000000000e+09
3.490000069141387939e-01,3.260999917984008789e+00,9.309999942779541016e-01,1.065353216000000000e+09
7.080000042915344238e-01,3.627000093460083008e+00,1.248999953269958496e+00,1.065353216000000000e+09
5.559999942779541016e-01,3.477999925613403320e+00,1.126999974250793457e+00,1.065353216000000000e+09
4.009999930858612061e-01,3.312999963760375977e+00,1.011000037193298340e+00,1.065353216000000000e+09
2.649999856948852539e-01,3.196000099182128906e+00,9.129999876022338867e-01,1.065353216000000000e+09
6.079999804496765137e-01,3.529999971389770508e+00,1.208999991416931152e+00,1.065353216000000000e+09
4.620000123977661133e-01,3.381000041961669922e+00,1.090999960899353027e+00,1.065353216000000000e+09
3.149999976158142090e-01,3.240000009536743164e+00,9.879999756813049316e-01,1.065353216000000000e+09
1.829999983310699463e-01,3.104000091552734375e+00,8.880000114440917969e-01,1.065353216000000000e+09
5.130000114440917969e-01,3.437999963760375977e+00,1.171000003814697266e+00,1.065353216000000000e+09
3.740000128746032715e-01,3.296000003814697266e+00,1.059999942779541016e+00,1.065353216000000000e+09
2.329999953508377075e-01,3.151999950408935547e+00,9.610000252723693848e-01,1.065353216000000000e+09
1.049999967217445374e-01,3.013999938964843750e+00,8.650000095367431641e-01,1.065353216000000000e+09
4.230000078678131104e-01,3.345000028610229492e+00,1.133000016212463379e+00,1.065353216000000000e+09
2.899999916553497314e-01,3.207999944686889648e+00,1.029000043869018555e+00,1.065353216000000000e+09
1.560000032186508179e-01,3.073999881744384766e+00,9.369999766349792480e-01,1.065353216000000000e+09
3.200000151991844177e-02,2.941999912261962891e+00,8.460000157356262207e-01,1.065353216000000000e+09
3.379999995231628418e-01,3.259999990463256836e+00,1.100000023841857910e+00,1.065353216000000000e+09
2.109999954700469971e-01,3.121000051498413086e+00,9.990000128746032715e-01,1.065353216000000000e+09
8.100000023841857910e-02,2.989000082015991211e+00,9.110000133514404297e-01,1.065353216000000000e+09
-3.599999845027923584e-02,2.880000114440917969e+00,8.309999704360961914e-01,1.065353216000000000e+09
2.590000033378601074e-01,3.176000118255615234e+00,1.067000031471252441e+00,1.065353216000000000e+09
1.360000073909759521e-01,3.053999900817871094e+00,9.760000109672546387e-01,1.065353216000000000e+09
1.200000010430812836e-02,2.933000087738037109e+00,8.949999809265136719e-01,1.065353216000000000e+09
-1.019999980926513672e-01,2.809999942779541016e+00,8.140000104904174805e-01,1.065353216000000000e+09
1.829999983310699463e-01,3.105000019073486328e+00,1.039000034332275391e+00,1.065353216000000000e+09
6.499999761581420898e-02,2.982000112533569336e+00,9.520000219345092773e-01,1.065353216000000000e+09
-5.400000140070915222e-02,2.854000091552734375e+00,8.730000257492065430e-01,1.065353216000000000e+09
-1.650000065565109253e-01,2.749000072479248047e+00,8.000000119209289551e-01,1.065353216000000000e+09
1.110000014305114746e-01,3.029999971389770508e+00,1.011000037193298340e+00,1.065353216000000000e+09
-2.000000094994902611e-03,2.908999919891357422e+00,9.279999732971191406e-01,1.065353216000000000e+09
-1.180000007152557373e-01,2.805000066757202148e+00,8.600000143051147461e-01,1.065353216000000000e+09
-2.259999960660934448e-01,2.683000087738037109e+00,7.850000262260437012e-01,1.065353216000000000e+09
4.100000113248825073e-02,2.954999923706054688e+00,9.829999804496765137e-01,1.065353216000000000e+09
-6.800000369548797607e-02,2.844000101089477539e+00,9.079999923706054688e-01,1.065353216000000000e+09
-1.800000071525573730e-01,2.739000082015991211e+00,8.420000076293945312e-01,1.065353216000000000e+09
-2.849999964237213135e-01,2.634999990463256836e+00,7.760000228881835938e-01,1.065353216000000000e+09
-2.400000020861625671e-02,2.890000104904174805e+00,9.589999914169311523e-01,1.065353216000000000e+09
-1.299999952316284180e-01,2.782000064849853516e+00,8.880000114440917969e-01,1.065353216000000000e+09
-2.389999926090240479e-01,2.681999921798706055e+00,8.270000219345092773e-01,1.065353216000000000e+09
-3.409999907016754150e-01,2.581000089645385742e+00,7.649999856948852539e-01,1.065353216000000000e+09
-8.699999749660491943e-02,2.816999912261962891e+00,9.340000152587890625e-01,1.065353216000000000e+09
-1.899999976158142090e-01,2.723999977111816406e+00,8.700000047683715820e-01,1.065353216000000000e+09
-2.960000038146972656e-01,2.624000072479248047e+00,8.119999766349792480e-01,1.065353216000000000e+09
-3.950000107288360596e-01,2.523000001907348633e+00,7.530000209808349609e-01,1.065353216000000000e+09
-1.469999998807907104e-01,2.759999990463256836e+00,9.139999747276306152e-01,1.065353216000000000e+09
-2.469999939203262329e-01,2.664000034332275391e+00,8.529999852180480957e-01,1.065353216000000000e+09
-3.499999940395355225e-01,2.569999933242797852e+00,7.990000247955322266e-01,1.065353216000000000e+09
-4.460000097751617432e-01,2.467000007629394531e+00,7.419999837875366211e-01,1.065353216000000000e+09
-2.070000022649765015e-01,2.719000101089477539e+00,8.989999890327453613e-01,1.065353216000000000e+09
-3.019999861717224121e-01,2.605000019073486328e+00,8.349999785423278809e-01,1.065353216000000000e+09
-4.009999930858612061e-01,2.503999948501586914e+00,7.829999923706054688e-01,1.065353216000000000e+09
-4.970000088214874268e-01,2.420000076293945312e+00,7.340000271797180176e-01,1.065353216000000000e+09
-2.619999945163726807e-01,2.648999929428100586e+00,8.759999871253967285e-01,1.065353216000000000e+09
-3.560000061988830566e-01,2.559000015258789062e+00,8.230000138282775879e-01,1.065353216000000000e+09
-4.539999961853027344e-01,2.466000080108642578e+00,7.749999761581420898e-01,1.065353216000000000e+09
-5.460000038146972656e-01,2.372999906539916992e+00,7.260000109672546387e-01,1.065353216000000000e+09
-3.149999976158142090e-01,2.588000059127807617e+00,8.560000061988830566e-01,1.065353216000000000e+09
-4.079999923706054688e-01,2.505000114440917969e+00,8.080000281333923340e-01,1.065353216000000000e+09
-5.019999742507934570e-01,2.410000085830688477e+00,7.630000114440917969e-01,1.065353216000000000e+09
-5.910000205039978027e-01,2.312999963760375977e+00,7.149999737739562988e-01,1.065353216000000000e+09
-3.689999878406524658e-01,2.546999931335449219e+00,8.429999947547912598e-01,1.065353216000000000e+09
-4.589999914169311523e-01,2.457000017166137695e+00,7.960000038146972656e-01,1.065353216000000000e+09
-5.509999990463256836e-01,2.368000030517578125e+00,7.549999952316284180e-01,1.065353216000000000e+09
-6.389999985694885254e-01,2.276999950408935547e+00,7.110000252723693848e-01,1.065353216000000000e+09
-4.199999868869781494e-01,2.494999885559082031e+00,8.270000219345092773e-01,1.065353216000000000e+09
-5.059999823570251465e-01,2.400000095367431641e+00,7.810000181198120117e-01,1.065353216000000000e+09
-5.970000028610229492e-01,2.316999912261962891e+00,7.440000176429748535e-01,1.065353216000000000e+09
-6.830000281333923340e-01,2.227999925613403320e+00,7.039999961853027344e-01,1.065353216000000000e+09
-4.690000116825103760e-01,2.441999912261962891e+00,8.109999895095825195e-01,1.065353216000000000e+09
-5.529999732971191406e-01,2.355999946594238281e+00,7.699999809265136719e-01,1.065353216000000000e+09
-6.399999856948852539e-01,2.266000032424926758e+00,7.340000271797180176e-01,1.065353216000000000e+09
-7.260000109672546387e-01,2.181999921798706055e+00,6.970000267028808594e-01,1.065353216000000000e+09
-5.159999728202819824e-01,2.392999887466430664e+00,7.969999909400939941e-01,1.065353216000000000e+09
-6.000000238418579102e-01,2.315000057220458984e+00,7.599999904632568359e-01,1.065353216000000000e+09
-6.840000152587890625e-01,2.223999977111816406e+00,7.260000109672546387e-01,1.065353216000000000e+09
-7.680000066757202148e-01,2.141999959945678711e+00,6.919999718666076660e-01,1.065353216000000000e+09
-5.619999766349792480e-01,2.348000049591064453e+00,7.839999794960021973e-01,1.065353216000000000e+09
-6.420000195503234863e-01,2.259000062942504883e+00,7.469999790191650391e-01,1.065353216000000000e+09
-7.260000109672546387e-01,2.177999973297119141e+00,7.179999947547912598e-01,1.065353216000000000e+09
-8.080000281333923340e-01,2.095999956130981445e+00,6.869999766349792480e-01,1.065353216000000000e+09
-6.090000271797180176e-01,2.308000087738037109e+00,7.739999890327453613e-01,1.065353216000000000e+09
-6.869999766349792480e-01,2.220999956130981445e+00,7.390000224113464355e-01,1.065353216000000000e+09
-7.689999938011169434e-01,2.137000083923339844e+00,7.120000123977661133e-01,1.065353216000000000e+09
-8.510000109672546387e-01,2.061000108718872070e+00,6.840000152587890625e-01,1.065353216000000000e+09
-6.520000100135803223e-01,2.257999897003173828e+00,7.599999904632568359e-01,1.065353216000000000e+09
-7.269999980926513672e-01,2.174000024795532227e+00,7.279999852180480957e-01,1.065353216000000000e+09
-8.080000281333923340e-01,2.092000007629394531e+00,7.039999961853027344e-01,1.065353216000000000e+09
-8.899999856948852539e-01,2.017999887466430664e+00,6.800000071525573730e-01,1.065353216000000000e+09
-6.949999928474426270e-01,2.217999935150146484e+00,7.500000000000000000e-01,1.065353216000000000e+09
-7.699999809265136719e-01,2.134000062942504883e+00,7.210000157356262207e-01,1.065353216000000000e+09
-8.510000109672546387e-01,2.061000108718872070e+00,7.009999752044677734e-01,1.065353216000000000e+09
-9.269999861717224121e-01,1.975999951362609863e+00,6.759999990463256836e-01,1.065353216000000000e+09
-7.329999804496765137e-01,2.161999940872192383e+00,7.350000143051147461e-01,1.065353216000000000e+09
-8.090000152587890625e-01,2.089999914169311523e+00,7.120000123977661133e-01,1.065353216000000000e+09
-8.880000114440917969e-01,2.013999938964843750e+00,6.940000057220458984e-01,1.065353216000000000e+09
-9.679999947547912598e-01,1.942999958992004395e+00,6.740000247955322266e-01,1.065353216000000000e+09
-7.770000100135803223e-01,2.128999948501586914e+00,7.279999852180480957e-01,1.065353216000000000e+09
-8.500000238418579102e-01,2.055000066757202148e+00,7.059999704360961914e-01,1.065353216000000000e+09
-9.259999990463256836e-01,1.976999998092651367e+00,6.899999976158142090e-01,1.065353216000000000e+09
-9.980000257492065430e-01,1.889000058174133301e+00,6.669999957084655762e-01,1.065353216000000000e+09
-8.159999847412109375e-01,2.086999893188476562e+00,7.189999818801879883e-01,1.065353216000000000e+09
-8.899999856948852539e-01,2.016000032424926758e+00,6.999999880790710449e-01,1.065353216000000000e+09
-9.639999866485595703e-01,1.937999963760375977e+00,6.850000023841857910e-01,1.065353216000000000e+09
0.000000000000000000e+00,0.000000000000000000e+00,0.000000000000000000e+00,1.065353216000000000e+09
-8.560000061988830566e-01,2.046000003814697266e+00,7.099999785423278809e-01,1.065353216000000000e+09
-9.269999861717224121e-01,1.973999977111816406e+00,6.930000185966491699e-01,1.065353216000000000e+09
-1.000000000000000000e+00,1.896999955177307129e+00,6.809999942779541016e-01,1.065353216000000000e+09
0.000000000000000000e+00,0.000000000000000000e+00,0.000000000000000000e+00,1.065353216000000000e+09
-8.970000147819519043e-01,2.010999917984008789e+00,7.030000090599060059e-01,1.065353216000000000e+09
-9.689999818801879883e-01,1.942999958992004395e+00,6.899999976158142090e-01,1.065353216000000000e+09
0.000000000000000000e+00,0.000000000000000000e+00,0.000000000000000000e+00,1.065353216000000000e+09
0.000000000000000000e+00,0.000000000000000000e+00,0.000000000000000000e+00,1.065353216000000000e+09
-9.359999895095825195e-01,1.973999977111816406e+00,6.970000267028808594e-01,1.065353216000000000e+09
-1.000000000000000000e+00,1.896000027656555176e+00,6.809999942779541016e-01,1.065353216000000000e+09
0.000000000000000000e+00,0.000000000000000000e+00,0.000000000000000000e+00,1.065353216000000000e+09
0.000000000000000000e+00,0.000000000000000000e+00,0.000000000000000000e+00,1.065353216000000000e+09
-9.729999899864196777e-01,1.934999942779541016e+00,6.890000104904174805e-01,1.065353216000000000e+09
0.000000000000000000e+00,0.000000000000000000e+00,0.000000000000000000e+00,1.065353216000000000e+09
0.000000000000000000e+00,0.000000000000000000e+00,0.000000000000000000e+00,1.065353216000000000e+09
0.000000000000000000e+00,0.000000000000000000e+00,0.000000000000000000e+00,1.065353216000000000e+09
-1.000000000000000000e+00,1.878999948501586914e+00,6.759999990463256836e-01,1.065353216000000000e+09
0.000000000000000000e+00,0.000000000000000000e+00,0.000000000000000000e+00,1.065353216000000000e+09
0.000000000000000000e+00,0.000000000000000000e+00,0.000000000000000000e+00,1.065353216000000000e+09
0.000000000000000000e+00,0.000000000000000000e+00,0.000000000000000000e+00,1.065353216000000000e+09
0.000000000000000000e+00,0.000000000000000000e+00,0.000000000000000000e+00,1.065353216000000000e+09
0.000000000000000000e+00,0.000000000000000000e+00,0.000000000000000000e+00,1.065353216000000000e+09
0.000000000000000000e+00,0.000000000000000000e+00,0.000000000000000000e+00,1.065353216000000000e+09
0.000000000000000000e+00,0.000000000000000000e+00,0.000000000000000000e+00,1.065353216000000000e+09
0.000000000000000000e+00,0.000000000000000000e+00,0.000000000000000000e+00,1.065353216000000000e+09
0.000000000000000000e+00,0.000000000000000000e+00,0.000000000000000000e+00,1.065353216000000000e+09
0.000000000000000000e+00,0.000000000000000000e+00,0.000000000000000000e+00,1.065353216000000000e+09
0.000000000000000000e+00,0.000000000000000000e+00,0.000000000000000000e+00,1.065353216000000000e+09
0.000000000000000000e+00,0.000000000000000000e+00,0.000000000000000000e+00,1.065353216000000000e+09
0.000000000000000000e+00,0.000000000000000000e+00,0.000000000000000000e+00,1.065353216000000000e+09
0.000000000000000000e+00,0.000000000000000000e+00,0.000000000000000000e+00,1.065353216000000000e+09
0.000000000000000000e+00,0.000000000000000000e+00,0.000000000000000000e+00,1.065353216000000000e+09
0.000000000000000000e+00,0.000000000000000000e+00,0.000000000000000000e+00,1.065353216000000000e+09
0.000000000000000000e+00,0.000000000000000000e+00,0.000000000000000000e+00,1.065353216000000000e+09
0.000000000000000000e+00,0.000000000000000000e+00,0.000000000000000000e+00,1.065353216000000000e+09
0.000000000000000000e+00,0.000000000000000000e+00,0.000000000000000000e+00,1.065353216000000000e+09
0.000000000000000000e+00,0.000000000000000000e+00,0.000000000000000000e+00,1.065353216000000000e+09
0.000000000000000000e+00,0.000000000000000000e+00,0.000000000000000000e+00,1.065353216000000000e+09
0.000000000000000000e+00,0.000000000000000000e+00,0.000000000000000000e+00,1.065353216000000000e+09
0.000000000000000000e+00,0.000000000000000000e+00,0.000000000000000000e+00,1.065353216000000000e+09
0.000000000000000000e+00,0.000000000000000000e+00,0.000000000000000000e+00,1.065353216000000000e+09
0.000000000000000000e+00,0.000000000000000000e+00,0.000000000000000000e+00,1.065353216000000000e+09
0.000000000000000000e+00,0.000000000000000000e+00,0.000000000000000000e+00,1.065353216000000000e+09
0.000000000000000000e+00,0.000000000000000000e+00,0.000000000000000000e+00,1.065353216000000000e+09
0.000000000000000000e+00,0.000000000000000000e+00,0.000000000000000000e+00,1.065353216000000000e+09
0.000000000000000000e+00,0.000000000000000000e+00,0.000000000000000000e+00,1.065353216000000000e+09
0.000000000000000000e+00,0.000000000000000000e+00,0.000000000000000000e+00,1.065353216000000000e+09
0.000000000000000000e+00,0.000000000000000000e+00,0.000000000000000000e+00,1.065353216000000000e+09
0.000000000000000000e+00,0.000000000000000000e+00,0.000000000000000000e+00,1.065353216000000000e+09
0.000000000000000000e+00,0.000000000000000000e+00,0.000000000000000000e+00,1.065353216000000000e+09
0.000000000000000000e+00,0.000000000000000000e+00,0.000000000000000000e+00,1.065353216000000000e+09
0.000000000000000000e+00,0.000000000000000000e+00,0.000000000000000000e+00,1.065353216000000000e+09
0.000000000000000000e+00,0.000000000000000000e+00,0.000000000000000000e+00,1.065353216000000000e+09
0.000000000000000000e+00,0.000000000000000000e+00,0.000000000000000000e+00,1.065353216000000000e+09
0.000000000000000000e+00,0.000000000000000000e+00,0.000000000000000000e+00,1.065353216000000000e+09
0.000000000000000000e+00,0.000000000000000000e+00,0.000000000000000000e+00,1.065353216000000000e+09
0.000000000000000000e+00,0.000000000000000000e+00,0.000000000000000000e+00,1.065353216000000000e+09
0.000000000000000000e+00,0.000000000000000000e+00,0.000000000000000000e+00,1.065353216000000000e+09
0.000000000000000000e+00,0.000000000000000000e+00,0.000000000000000000e+00,1.065353216000000000e+09
0.000000000000000000e+00,0.000000000000000000e+00,0.000000000000000000e+00,1.065353216000000000e+09
0.000000000000000000e+00,0.000000000000000000e+00,0.000000000000000000e+00,1.065353216000000000e+09
0.000000000000000000e+00,0.000000000000000000e+00,0.000000000000000000e+00,1.065353216000000000e+09
0.000000000000000000e+00,0.000000000000000000e+00,0.000000000000000000e+00,1.065353216000000000e+09
0.000000000000000000e+00,0.000000000000000000e+00,0.000000000000000000e+00,1.065353216000000000e+09
0.000000000000000000e+00,0.000000000000000000e+00,0.000000000000000000e+00,1.065353216000000000e+09
0.000000000000000000e+00,0.000000000000000000e+00,0.000000000000000000e+00,1.065353216000000000e+09
0.000000000000000000e+00,0.000000000000000000e+00,0.000000000000000000e+00,1.065353216000000000e+09
0.000000000000000000e+00,0.000000000000000000e+00,0.000000000000000000e+00,1.065353216000000000e+09
0.000000000000000000e+00,0.000000000000000000e+00,0.000000000000000000e+00,1.065353216000000000e+09
0.000000000000000000e+00,0.000000000000000000e+00,0.000000000000000000e+00,1.065353216000000000e+09
0.000000000000000000e+00,0.000000000000000000e+00,0.000000000000000000e+00,1.065353216000000000e+09
0.000000000000000000e+00,0.000000000000000000e+00,0.000000000000000000e+00,1.065353216000000000e+09
0.000000000000000000e+00,0.000000000000000000e+00,0.000000000000000000e+00,1.065353216000000000e+09
0.000000000000000000e+00,0.000000000000000000e+00,0.000000000000000000e+00,1.065353216000000000e+09
0.000000000000000000e+00,0.000000000000000000e+00,0.000000000000000000e+00,1.065353216000000000e+09
0.000000000000000000e+00,0.000000000000000000e+00,0.000000000000000000e+00,1.065353216000000000e+09
0.000000000000000000e+00,0.000000000000000000e+00,0.000000000000000000e+00,1.065353216000000000e+09
0.000000000000000000e+00,0.000000000000000000e+00,0.000000000000000000e+00,1.065353216000000000e+09
0.000000000000000000e+00,0.000000000000000000e+00,0.000000000000000000e+00,1.065353216000000000e+09
0.000000000000000000e+00,0.000000000000000000e+00,0.000000000000000000e+00,1.065353216000000000e+09
0.000000000000000000e+00,0.000000000000000000e+00,0.000000000000000000e+00,1.065353216000000000e+09
0.000000000000000000e+00,0.000000000000000000e+00,0.000000000000000000e+00,1.065353216000000000e+09
0.000000000000000000e+00,0.000000000000000000e+00,0.000000000000000000e+00,1.065353216000000000e+09
-1.754999995231628418e+00,1.136000037193298340e+00,7.179999947547912598e-01,1.065353216000000000e+09
0.000000000000000000e+00,0.000000000000000000e+00,0.000000000000000000e+00,1.065353216000000000e+09
0.000000000000000000e+00,0.000000000000000000e+00,0.000000000000000000e+00,1.065353216000000000e+09
0.000000000000000000e+00,0.000000000000000000e+00,0.000000000000000000e+00,1.065353216000000000e+09
-1.789000034332275391e+00,1.100000023841857910e+00,7.250000238418579102e-01,1.065353216000000000e+09
0.000000000000000000e+00,0.000000000000000000e+00,0.000000000000000000e+00,1.065353216000000000e+09
0.000000000000000000e+00,0.000000000000000000e+00,0.000000000000000000e+00,1.065353216000000000e+09
-1.751999974250793457e+00,1.133000016212463379e+00,6.980000138282775879e-01,1.065353216000000000e+09
-1.825999975204467773e+00,1.065999984741210938e+00,7.329999804496765137e-01,1.065353216000000000e+09
0.000000000000000000e+00,0.000000000000000000e+00,0.000000000000000000e+00,1.065353216000000000e+09
0.000000000000000000e+00,0.000000000000000000e+00,0.000000000000000000e+00,1.065353216000000000e+09
-1.799999952316284180e+00,1.105999946594238281e+00,7.080000042915344238e-01,1.065353216000000000e+09
-1.863000035285949707e+00,1.031000018119812012e+00,7.419999837875366211e-01,1.065353216000000000e+09
0.000000000000000000e+00,0.000000000000000000e+00,0.000000000000000000e+00,1.065353216000000000e+09
-1.766999959945678711e+00,1.131999969482421875e+00,6.729999780654907227e-01,1.065353216000000000e+09
-1.828999996185302734e+00,1.065999984741210938e+00,7.110000252723693848e-01,1.065353216000000000e+09
-1.894000053405761719e+00,9.929999709129333496e-01,7.480000257492065430e-01,1.065353216000000000e+09
-1.745000004768371582e+00,1.157999992370605469e+00,6.449999809265136719e-01,1.065353216000000000e+09
-1.799000024795532227e+00,1.093000054359436035e+00,6.759999990463256836e-01,1.065353216000000000e+09
-1.861999988555908203e+00,1.027999997138977051e+00,7.170000076293945312e-01,1.065353216000000000e+09
-1.934000015258789062e+00,9.580000042915344238e-01,7.580000162124633789e-01,1.065353216000000000e+09
-1.779000043869018555e+00,1.120000004768371582e+00,6.470000147819519043e-01,1.065353216000000000e+09
-1.833999991416931152e+00,1.055999994277954102e+00,6.800000071525573730e-01,1.065353216000000000e+09
-1.896999955177307129e+00,9.909999966621398926e-01,7.229999899864196777e-01,1.065353216000000000e+09
-1.968000054359436035e+00,9.200000166893005371e-01,7.659999728202819824e-01,1.065353216000000000e+09
-1.815999984741210938e+00,1.083999991416931152e+00,6.499999761581420898e-01,1.065353216000000000e+09
-1.875000000000000000e+00,1.021999955177307129e+00,6.869999766349792480e-01,1.065353216000000000e+09
-1.937999963760375977e+00,9.559999704360961914e-01,7.319999933242797852e-01,1.065353216000000000e+09
-2.010999917984008789e+00,8.849999904632568359e-01,7.789999842643737793e-01,1.065353216000000000e+09
-1.848999977111816406e+00,1.044000029563903809e+00,6.520000100135803223e-01,1.065353216000000000e+09
-1.912999987602233887e+00,9.840000271797180176e-01,6.930000185966491699e-01,1.065353216000000000e+09
-1.970999956130981445e+00,9.160000085830688477e-01,7.379999756813049316e-01,1.065353216000000000e+09
-2.048000097274780273e+00,8.460000157356262207e-01,7.889999747276306152e-01,1.065353216000000000e+09
-1.884999990463256836e+00,1.004999995231628418e+00,6.560000181198120117e-01,1.065353216000000000e+09
-1.945000052452087402e+00,9.430000185966491699e-01,6.970000267028808594e-01,1.065353216000000000e+09
-2.016000032424926758e+00,8.809999823570251465e-01,7.490000128746032715e-01,1.065353216000000000e+09
-2.085999965667724609e+00,8.069999814033508301e-01,7.990000247955322266e-01,1.065353216000000000e+09
-1.922999978065490723e+00,9.670000076293945312e-01,6.600000262260437012e-01,1.065353216000000000e+09
-1.985999941825866699e+00,9.060000181198120117e-01,7.049999833106994629e-01,1.065353216000000000e+09
-2.049999952316284180e+00,8.399999737739562988e-01,7.570000290870666504e-01,1.065353216000000000e+09
-2.121000051498413086e+00,7.649999856948852539e-01,8.090000152587890625e-01,1.065353216000000000e+09
-1.958999991416931152e+00,9.269999861717224121e-01,6.650000214576721191e-01,1.065353216000000000e+09
-2.022000074386596680e+00,8.650000095367431641e-01,7.110000252723693848e-01,1.065353216000000000e+09
-2.092000007629394531e+00,8.009999990463256836e-01,7.670000195503234863e-01,1.065353216000000000e+09
-2.161000013351440430e+00,7.250000238418579102e-01,8.220000267028808594e-01,1.065353216000000000e+09
-2.006999969482421875e+00,8.909999728202819824e-01,6.729999780654907227e-01,1.065353216000000000e+09
-2.068000078201293945e+00,8.270000219345092773e-01,7.210000157356262207e-01,1.065353216000000000e+09
-2.132999897003173828e+00,7.609999775886535645e-01,7.779999971389770508e-01,1.065353216000000000e+09
-2.204999923706054688e+00,6.850000023841857910e-01,8.360000252723693848e-01,1.065353216000000000e+09
-2.039999961853027344e+00,8.470000028610229492e-01,6.769999861717224121e-01,1.065353216000000000e+09
-2.105000019073486328e+00,7.850000262260437012e-01,7.279999852180480957e-01,1.065353216000000000e+09
-2.173000097274780273e+00,7.179999947547912598e-01,7.879999876022338867e-01,1.065353216000000000e+09
-2.253999948501586914e+00,6.449999809265136719e-01,8.519999980926513672e-01,1.065353216000000000e+09
-2.086999893188476562e+00,8.080000281333923340e-01,6.859999895095825195e-01,1.065353216000000000e+09
-2.150000095367431641e+00,7.440000176429748535e-01,7.390000224113464355e-01,1.065353216000000000e+09
-2.217000007629394531e+00,6.769999861717224121e-01,8.009999990463256836e-01,1.065353216000000000e+09
-2.299000024795532227e+00,6.019999980926513672e-01,8.679999709129333496e-01,1.065353216000000000e+09
-2.128000020980834961e+00,7.649999856948852539e-01,6.930000185966491699e-01,1.065353216000000000e+09
-2.188999891281127930e+00,6.999999880790710449e-01,7.469999790191650391e-01,1.065353216000000000e+09
-2.259000062942504883e+00,6.330000162124633789e-01,8.119999766349792480e-01,1.065353216000000000e+09
-2.341000080108642578e+00,5.569999814033508301e-01,8.820000290870666504e-01,1.065353216000000000e+09
-2.171000003814697266e+00,7.220000028610229492e-01,7.009999752044677734e-01,1.065353216000000000e+09
-2.236999988555908203e+00,6.579999923706054688e-01,7.590000033378601074e-01,1.065353216000000000e+09
-2.312000036239624023e+00,5.910000205039978027e-01,8.289999961853027344e-01,1.065353216000000000e+09
-2.388999938964843750e+00,5.109999775886535645e-01,8.989999890327453613e-01,1.065353216000000000e+09
-2.214999914169311523e+00,6.769999861717224121e-01,7.099999785423278809e-01,1.065353216000000000e+09
-2.283999919891357422e+00,6.129999756813049316e-01,7.710000276565551758e-01,1.065353216000000000e+09
-2.358000040054321289e+00,5.450000166893005371e-01,8.429999947547912598e-01,1.065353216000000000e+09
-2.433000087738037109e+00,4.639999866485595703e-01,9.150000214576721191e-01,1.065353216000000000e+09
-2.256000041961669922e+00,6.299999952316284180e-01,7.179999947547912598e-01,1.065353216000000000e+09
-2.335000038146972656e+00,5.680000185966491699e-01,7.850000262260437012e-01,1.065353216000000000e+09
-2.401000022888183594e+00,4.959999918937683105e-01,8.560000061988830566e-01,1.065353216000000000e+09
-2.480000019073486328e+00,4.149999916553497314e-01,9.330000281333923340e-01,1.065353216000000000e+09
-2.309000015258789062e+00,5.849999785423278809e-01,7.300000190734863281e-01,1.065353216000000000e+09
-2.384999990463256836e+00,5.199999809265136719e-01,7.979999780654907227e-01,1.065353216000000000e+09
-2.453999996185302734e+00,4.490000009536743164e-01,8.740000128746032715e-01,1.065353216000000000e+09
-2.528000116348266602e+00,3.650000095367431641e-01,9.520000219345092773e-01,1.065353216000000000e+09
-2.362999916076660156e+00,5.379999876022338867e-01,7.429999709129333496e-01,1.065353216000000000e+09
-2.426000118255615234e+00,4.690000116825103760e-01,8.100000023841857910e-01,1.065353216000000000e+09
-2.490000009536743164e+00,3.959999978542327881e-01,8.849999904632568359e-01,1.065353216000000000e+09
-2.575999975204467773e+00,3.129999935626983643e-01,9.700000286102294922e-01,1.065353216000000000e+09
-2.407000064849853516e+00,4.869999885559082031e-01,7.540000081062316895e-01,1.065353216000000000e+09
-2.474999904632568359e+00,4.180000126361846924e-01,8.240000009536743164e-01,1.065353216000000000e+09
-2.555000066757202148e+00,3.459999859333038330e-01,9.079999923706054688e-01,1.065353216000000000e+09
-2.630000114440917969e+00,2.610000073909759521e-01,9.919999837875366211e-01,1.065353216000000000e+09
-2.456000089645385742e+00,4.350000023841857910e-01,7.659999728202819824e-01,1.065353216000000000e+09
-2.530999898910522461e+00,3.659999966621398926e-01,8.410000205039978027e-01,1.065353216000000000e+09
-2.601999998092651367e+00,2.919999957084655762e-01,9.250000119209289551e-01,1.065353216000000000e+09
-2.674999952316284180e+00,2.039999961853027344e-01,1.011000037193298340e+00,1.065353216000000000e+09
-2.509000062942504883e+00,3.819999992847442627e-01,7.799999713897705078e-01,1.065353216000000000e+09
-2.581000089645385742e+00,3.109999895095825195e-01,8.560000061988830566e-01,1.065353216000000000e+09
-2.655999898910522461e+00,2.360000014305114746e-01,9.449999928474426270e-01,1.065353216000000000e+09
-2.739000082015991211e+00,1.480000019073486328e-01,1.037999987602233887e+00,1.065353216000000000e+09
-2.565999984741210938e+00,3.260000050067901611e-01,7.950000166893005371e-01,1.065353216000000000e+09
-2.637000083923339844e+00,2.540000081062316895e-01,8.740000128746032715e-01,1.065353216000000000e+09
-2.711999893188476562e+00,1.780000030994415283e-01,9.649999737739562988e-01,1.065353216000000000e+09
-2.795000076293945312e+00,8.799999952316284180e-02,1.062000036239624023e+00,1.065353216000000000e+09
-2.624000072479248047e+00,2.689999938011169434e-01,8.109999895095825195e-01,1.065353216000000000e+09
-2.697000026702880859e+00,1.949999928474426270e-01,8.939999938011169434e-01,1.065353216000000000e+09
-2.773000001907348633e+00,1.180000007152557373e-01,9.890000224113464355e-01,1.065353216000000000e+09
-2.855999946594238281e+00,2.700000070035457611e-02,1.088999986648559570e+00,1.065353216000000000e+09
-2.681999921798706055e+00,2.090000063180923462e-01,8.280000090599060059e-01,1.065353216000000000e+09
-2.760999917984008789e+00,1.340000033378601074e-01,9.160000085830688477e-01,1.065353216000000000e+09
-2.832000017166137695e+00,5.499999970197677612e-02,1.011999964714050293e+00,1.065353216000000000e+09
-2.926000118255615234e+00,-3.700000047683715820e-02,1.120000004768371582e+00,1.065353216000000000e+09
-2.736999988555908203e+00,1.459999978542327881e-01,8.450000286102294922e-01,1.065353216000000000e+09
-2.812000036239624023e+00,7.000000029802322388e-02,9.330000281333923340e-01,1.065353216000000000e+09
-2.901999950408935547e+00,-8.999999612569808960e-03,1.039999961853027344e+00,1.065353216000000000e+09
-2.983999967575073242e+00,-1.040000021457672119e-01,1.146999955177307129e+00,1.065353216000000000e+09
-2.808000087738037109e+00,8.100000023841857910e-02,8.659999966621398926e-01,1.065353216000000000e+09
-2.881000041961669922e+00,3.000000026077032089e-03,9.580000042915344238e-01,1.065353216000000000e+09
-2.963000059127807617e+00,-7.699999958276748657e-02,1.065000057220458984e+00,1.065353216000000000e+09
-3.046000003814697266e+00,-1.739999949932098389e-01,1.177000045776367188e+00,1.065353216000000000e+09
-2.875999927520751953e+00,1.300000026822090149e-02,8.889999985694885254e-01,1.065353216000000000e+09
-2.947999954223632812e+00,-6.599999964237213135e-02,9.829999804496765137e-01,1.065353216000000000e+09
-3.038000106811523438e+00,-1.490000039339065552e-01,1.095999956130981445e+00,1.065353216000000000e+09
-3.125999927520751953e+00,-2.479999959468841553e-01,1.213999986648559570e+00,1.065353216000000000e+09
-2.943000078201293945e+00,-5.799999833106994629e-02,9.100000262260437012e-01,1.065353216000000000e+09
-3.022000074386596680e+00,-1.400000005960464478e-01,1.009999990463256836e+00,1.065353216000000000e+09
-3.118999958038330078e+00,-2.249999940395355225e-01,1.129999995231628418e+00,1.065353216000000000e+09
-3.200000047683715820e+00,-3.260000050067901611e-01,1.250000000000000000e+00,1.065353216000000000e+09
-3.019000053405761719e+00,-1.340000033378601074e-01,9.359999895095825195e-01,1.065353216000000000e+09
-3.096999883651733398e+00,-2.169999927282333374e-01,1.039000034332275391e+00,1.065353216000000000e+09
-3.177999973297119141e+00,-3.030000030994415283e-01,1.156999945640563965e+00,1.065353216000000000e+09
-3.289999961853027344e+00,-4.079999923706054688e-01,1.292000055313110352e+00,1.065353216000000000e+09
-3.095999956130981445e+00,-2.129999995231628418e-01,9.620000123977661133e-01,1.065353216000000000e+09
-3.173000097274780273e+00,-2.980000078678131104e-01,1.069000005722045898e+00,1.065353216000000000e+09
-3.270999908447265625e+00,-3.869999945163726807e-01,1.197000026702880859e+00,1.065353216000000000e+09
-3.364000082015991211e+00,-4.939999878406524658e-01,1.330000042915344238e+00,1.065353216000000000e+09
-3.174999952316284180e+00,-2.960000038146972656e-01,9.900000095367431641e-01,1.065353216000000000e+09
-3.259999990463256836e+00,-3.849999904632568359e-01,1.103999972343444824e+00,1.065353216000000000e+09
-3.358999967575073242e+00,-4.760000109672546387e-01,1.236999988555908203e+00,1.065353216000000000e+09
-3.459000110626220703e+00,-5.860000252723693848e-01,1.378000020980834961e+00,1.065353216000000000e+09
-3.259999990463256836e+00,-3.860000073909759521e-01,1.021000027656555176e+00,1.065353216000000000e+09
-3.355999946594238281e+00,-4.769999980926513672e-01,1.141999959945678711e+00,1.065353216000000000e+09
-3.433000087738037109e+00,-5.669999718666076660e-01,1.271999955177307129e+00,1.065353216000000000e+09
-3.546000003814697266e+00,-6.809999942779541016e-01,1.422999978065490723e+00,1.065353216000000000e+09
-3.355000019073486328e+00,-4.799999892711639404e-01,1.055999994277954102e+00,1.065353216000000000e+09
-3.444000005722045898e+00,-5.740000009536743164e-01,1.179999947547912598e+00,1.065353216000000000e+09
-3.540999889373779297e+00,-6.690000295639038086e-01,1.320999979972839355e+00,1.065353216000000000e+09
-3.668999910354614258e+00,-7.900000214576721191e-01,1.483999967575073242e+00,1.065353216000000000e+09
-3.457999944686889648e+00,-5.820000171661376953e-01,1.095000028610229492e+00,1.065353216000000000e+09
-3.548000097274780273e+00,-6.779999732971191406e-01,1.223000049591064453e+00,1.065353216000000000e+09
-3.655999898910522461e+00,-7.779999971389770508e-01,1.373999953269958496e+00,1.065353216000000000e+09
-3.773000001907348633e+00,-8.989999890327453613e-01,1.539000034332275391e+00,1.065353216000000000e+09
-3.549999952316284180e+00,-6.869999766349792480e-01,1.131000041961669922e+00,1.065353216000000000e+09
-3.658999919891357422e+00,-7.889999747276306152e-01,1.271000027656555176e+00,1.065353216000000000e+09
-3.776000022888183594e+00,-8.939999938011169434e-01,1.430999994277954102e+00,1.065353216000000000e+09
-3.888999938964843750e+00,-1.019000053405761719e+00,1.600000023841857910e+00,1.065353216000000000e+09
-3.681999921798706055e+00,-8.069999814033508301e-01,1.180999994277954102e+00,1.065353216000000000e+09
-3.778000116348266602e+00,-9.100000262260437012e-01,1.322999954223632812e+00,1.065353216000000000e+09
-3.897000074386596680e+00,-1.016999959945678711e+00,1.488999962806701660e+00,1.065353216000000000e+09
-4.026000022888183594e+00,-1.149000048637390137e+00,1.672000050544738770e+00,1.065353216000000000e+09
-3.809999942779541016e+00,-9.340000152587890625e-01,1.231999993324279785e+00,1.065353216000000000e+09
-3.913000106811523438e+00,-1.041000008583068848e+00,1.381000041961669922e+00,1.065353216000000000e+09
-4.026999950408935547e+00,-1.149999976158142090e+00,1.552999973297119141e+00,1.065353216000000000e+09
-4.166999816894531250e+00,-1.289000034332275391e+00,1.746999979019165039e+00,1.065353216000000000e+09
-3.944000005722045898e+00,-1.070000052452087402e+00,1.286000013351440430e+00,1.065353216000000000e+09
-4.052000045776367188e+00,-1.182000041007995605e+00,1.444000005722045898e+00,1.065353216000000000e+09
-4.171000003814697266e+00,-1.294999957084655762e+00,1.623999953269958496e+00,1.065353216000000000e+09
-4.309000015258789062e+00,-1.437999963760375977e+00,1.825999975204467773e+00,1.065353216000000000e+09
-4.092999935150146484e+00,-1.218999981880187988e+00,1.347000002861022949e+00,1.065353216000000000e+09
-4.202000141143798828e+00,-1.335000038146972656e+00,1.511999964714050293e+00,1.065353216000000000e+09
-4.336999893188476562e+00,-1.457000017166137695e+00,1.705999970436096191e+00,1.065353216000000000e+09
-4.481999874114990234e+00,-1.605000019073486328e+00,1.919000029563903809e+00,1.065353216000000000e+09
-4.254000186920166016e+00,-1.381999969482421875e+00,1.414000034332275391e+00,1.065353216000000000e+09
-4.373000144958496094e+00,-1.503999948501586914e+00,1.590000033378601074e+00,1.065353216000000000e+09
-4.513000011444091797e+00,-1.631000041961669922e+00,1.794999957084655762e+00,1.065353216000000000e+09
-4.657999992370605469e+00,-1.784999966621398926e+00,2.017999887466430664e+00,1.065353216000000000e+09
-4.439000129699707031e+00,-1.562999963760375977e+00,1.491999983787536621e+00,1.065353216000000000e+09
-4.560999870300292969e+00,-1.692000031471252441e+00,1.677999973297119141e+00,1.065353216000000000e+09
-4.710999965667724609e+00,-1.825000047683715820e+00,1.894000053405761719e+00,1.065353216000000000e+09
-4.842000007629394531e+00,-1.978000044822692871e+00,2.121000051498413086e+00,1.065353216000000000e+09
-4.644000053405761719e+00,-1.766000032424926758e+00,1.578999996185302734e+00,1.065353216000000000e+09
-4.776000022888183594e+00,-1.901000022888183594e+00,1.777999997138977051e+00,1.065353216000000000e+09
-4.916999816894531250e+00,-2.036000013351440430e+00,2.000999927520751953e+00,1.065353216000000000e+09
-5.065999984741210938e+00,-2.200000047683715820e+00,2.246999979019165039e+00,1.065353216000000000e+09
-4.861999988555908203e+00,-1.985999941825866699e+00,1.672999978065490723e+00,1.065353216000000000e+09
-4.987999916076660156e+00,-2.125000000000000000e+00,1.879999995231628418e+00,1.065353216000000000e+09
-5.142000198364257812e+00,-2.267999887466430664e+00,2.118999958038330078e+00,1.065353216000000000e+09
-5.313000202178955078e+00,-2.447999954223632812e+00,2.387000083923339844e+00,1.065353216000000000e+09
-5.092999935150146484e+00,-2.227999925613403320e+00,1.776000022888183594e+00,1.065353216000000000e+09
-5.236000061035156250e+00,-2.378999948501586914e+00,2.000000000000000000e+00,1.065353216000000000e+09
-5.410999774932861328e+00,-2.536000013351440430e+00,2.259000062942504883e+00,1.065353216000000000e+09
-5.579999923706054688e+00,-2.720000028610229492e+00,2.539999961853027344e+00,1.065353216000000000e+09
-5.372000217437744141e+00,-2.509999990463256836e+00,1.899999976158142090e+00,1.065353216000000000e+09
-5.538000106811523438e+00,-2.674999952316284180e+00,2.144000053405761719e+00,1.065353216000000000e+09
